ply
format ascii 1.0
element vertex 780
property float x
property float y
property float z
property float quality
property uchar red
property uchar green
property uchar blue
element face 0
property list uchar int vertex_index
end_header
-0.2653316256 -0.7355550085 0.1215126281 1.0000000000 0 0 255
-0.1139029773 0.8583208987 0.3252657274 1.0000000000 0 0 255
-0.0232166561 -0.3538976157 0.1357721601 0.0000000000 255 0 0
-0.2961027772 0.1610489685 0.2555798993 0.0000000000 255 0 0
0.7785678284 -0.7007026676 -0.0485778379 1.0000000000 0 0 255
-0.8471631820 -0.9704750185 0.1853329568 1.0000000000 0 0 255
-0.3720040333 -0.9566950236 0.1076120499 1.0000000000 0 0 255
0.0146752984 -0.1511423786 0.1585666082 0.0000000000 255 0 0
-0.0354143374 0.5099736482 0.2620179413 1.0000000000 0 0 255
0.7257377883 -0.1540562590 0.0388757347 1.0000000000 0 0 255
-0.3823784160 0.8851440103 0.3741555528 1.0000000000 0 0 255
-0.5667006992 -0.1082742556 0.2622484437 1.0000000000 0 0 255
0.4451295075 -1.1669587620 -0.0596818600 1.0000000000 0 0 255
0.1178386738 -0.1462492199 0.1419657225 0.0000000000 255 0 0
-0.1654159333 -0.3168484091 0.1649509381 0.0000000000 255 0 0
0.2070002208 -0.9648593994 0.0093174429 1.0000000000 0 0 255
1.0441486575 0.0634773808 0.0167413110 1.0000000000 0 0 255
-0.7654401140 -0.4972422371 0.2396621468 1.0000000000 0 0 255
0.8121197428 0.2534902380 0.0829796610 1.0000000000 0 0 255
-0.5538003898 -0.2479199952 0.2400075468 1.0000000000 0 0 255
1.1255490676 0.5264796171 0.0696537657 1.0000000000 0 0 255
0.4136089589 -0.3263684925 0.0664579577 1.0000000000 0 0 255
0.6332254715 -0.9828304442 -0.0647602913 1.0000000000 0 0 255
0.7529803482 0.0279436287 0.0604724664 1.0000000000 0 0 255
0.5978294900 -0.4303265237 0.0206110748 1.0000000000 0 0 255
0.0355864041 0.8296303411 0.2960658572 1.0000000000 0 0 255
-0.5289030415 0.2037706614 0.3007714126 1.0000000000 0 0 255
0.3116074950 -0.1549080716 0.1082185053 0.0000000000 255 0 0
0.0462653535 -0.9442606877 0.0392402303 1.0000000000 0 0 255
0.1175154759 -0.4238030681 0.1021156972 1.0000000000 0 0 255
-0.3652697385 0.1552010304 0.2663410371 1.0000000000 0 0 255
0.0441242863 0.1679123873 0.1994977774 1.0000000000 0 0 255
-0.9924892678 -0.9130991320 0.2179586085 1.0000000000 0 0 255
0.6177186811 -1.1504605388 -0.0862595915 1.0000000000 0 0 255
0.9937531259 0.4567694503 0.0817385941 1.0000000000 0 0 255
0.3508560796 -0.7530852142 0.0156344207 1.0000000000 0 0 255
-0.4061872440 -0.1845946166 0.2243516295 1.0000000000 0 0 255
0.7223434497 -0.8863682114 -0.0658402435 1.0000000000 0 0 255
-0.3419101510 -0.6524704965 0.1463028854 1.0000000000 0 0 255
0.2609469716 0.1714805279 0.1636414482 1.0000000000 0 0 255
0.5577643310 -0.8730770207 -0.0363232412 1.0000000000 0 0 255
-0.3070994107 0.5968766459 0.3200838979 1.0000000000 0 0 255
-0.2014351710 -0.9284350748 0.0830641976 1.0000000000 0 0 255
0.3881634428 0.5179329905 0.1921123293 1.0000000000 0 0 255
-0.2126296984 -0.1734521963 0.1934867029 0.0000000000 255 0 0
-0.2752085133 -0.0467481215 0.2221999168 0.0000000000 255 0 0
-0.6405639832 0.3219035798 0.3364852614 1.0000000000 0 0 255
0.5100243268 -1.1042631767 -0.0615533468 1.0000000000 0 0 255
-0.2103347981 -0.5736338863 0.1355671773 1.0000000000 0 0 255
-0.7082779098 -0.8647298416 0.1772397758 1.0000000000 0 0 255
-0.8375929756 -0.5836830333 0.2393372041 1.0000000000 0 0 255
0.8778402269 -0.6342357064 -0.0556735235 1.0000000000 0 0 255
-0.7866885532 -0.7247509340 0.2105171213 1.0000000000 0 0 255
-0.4556249424 -0.5372959684 0.1819359109 1.0000000000 0 0 255
-0.7604018568 0.3011673722 0.3536053146 1.0000000000 0 0 255
-0.3027581149 0.4492269988 0.2981279387 1.0000000000 0 0 255
-0.5778949835 0.2861288796 0.3208299415 1.0000000000 0 0 255
-0.5861353462 0.9491496417 0.4175354224 1.0000000000 0 0 255
-0.4298568051 0.5850009809 0.3389675550 1.0000000000 0 0 255
-0.5686576667 -0.0660245847 0.2686509849 1.0000000000 0 0 255
0.2988323654 0.3163613859 0.1781163304 1.0000000000 0 0 255
0.8472101351 -0.6351315849 -0.0506645058 1.0000000000 0 0 255
0.5940101358 -0.5336994929 0.0063896729 1.0000000000 0 0 255
0.1324742037 0.4451763026 0.2245407248 1.0000000000 0 0 255
0.0395300094 -0.8687582908 0.0512250679 1.0000000000 0 0 255
0.5301332290 0.6604023634 0.1887816394 1.0000000000 0 0 255
0.0850856580 0.7584537962 0.2775298351 1.0000000000 0 0 255
0.2076201200 -0.8507263528 0.0256225026 1.0000000000 0 0 255
0.1848327843 -0.9864331965 0.0099340665 1.0000000000 0 0 255
-0.5064634913 -0.4663058894 0.2006697747 1.0000000000 0 0 255
-0.7230493060 0.8924282826 0.4323461510 1.0000000000 0 0 255
0.2392258245 -1.1725463558 -0.0259473977 1.0000000000 0 0 255
-0.9526549158 -0.4118045159 0.2833485953 1.0000000000 0 0 255
0.0471191284 0.0512568985 0.1822237350 0.0000000000 255 0 0
-0.2477811676 0.0639051065 0.2335080612 0.0000000000 255 0 0
-0.3252132933 0.1350202155 0.2567206445 0.0000000000 255 0 0
-0.0470163318 0.0386498525 0.1962012651 0.0000000000 255 0 0
-0.8109575746 0.3228588975 0.3652040269 1.0000000000 0 0 255
0.1888584227 0.7249349246 0.2553041899 1.0000000000 0 0 255
-0.1001583924 -1.0303423229 0.0514249471 1.0000000000 0 0 255
1.0247580417 0.3193954299 0.0567874810 1.0000000000 0 0 255
-0.0274128384 -0.3126186306 0.1424107453 0.0000000000 255 0 0
0.3562159072 0.3771369273 0.1772287206 1.0000000000 0 0 255
0.9077596789 -0.2084371651 0.0005254071 1.0000000000 0 0 255
0.6971572858 0.3626577725 0.1179583346 1.0000000000 0 0 255
0.2194442024 -0.6854305457 0.0474039284 1.0000000000 0 0 255
0.6833570543 -1.1369181523 -0.0953226125 1.0000000000 0 0 255
0.0433861398 0.7221453973 0.2793043133 1.0000000000 0 0 255
0.1048359001 -0.0016953776 0.1649294502 0.0000000000 255 0 0
0.7497955165 -0.3321354042 0.0092377035 1.0000000000 0 0 255
0.8303752987 -0.8067805916 -0.0725188464 1.0000000000 0 0 255
0.7588572504 -0.5208588491 -0.0194152783 1.0000000000 0 0 255
-1.0481266301 -0.7488153181 0.2509103621 1.0000000000 0 0 255
0.7498255715 -0.8175976694 -0.0605628093 1.0000000000 0 0 255
-0.3293952035 -1.0718943775 0.0839026011 1.0000000000 0 0 255
0.4395185089 0.3444552297 0.1585570535 1.0000000000 0 0 255
-0.5828592935 -0.6782160200 0.1830176614 1.0000000000 0 0 255
-0.0137512875 0.3284241633 0.2322826530 1.0000000000 0 0 255
0.5951393382 0.3946007529 0.1396630633 1.0000000000 0 0 255
0.6976866197 -0.5513784772 -0.0135425035 1.0000000000 0 0 255
0.0404701157 0.4956616066 0.2472316037 1.0000000000 0 0 255
0.8444736978 -0.4595117975 -0.0249564423 1.0000000000 0 0 255
0.8360295763 -0.4261331941 -0.0187411649 1.0000000000 0 0 255
0.7280274483 0.2986255135 0.1035742546 1.0000000000 0 0 255
-0.2813472316 -0.5010602711 0.1579126276 1.0000000000 0 0 255
0.7439970842 -0.6025856125 -0.0286726205 1.0000000000 0 0 255
-0.8183215518 -0.2964275929 0.2774037080 1.0000000000 0 0 255
-0.8119577068 0.1486282539 0.3403224455 1.0000000000 0 0 255
-0.9799789266 -0.9430279274 0.2115572559 1.0000000000 0 0 255
-0.7707453859 0.6149903911 0.4004590122 1.0000000000 0 0 255
0.8050691949 -0.6623136660 -0.0475038834 1.0000000000 0 0 255
-0.1957594893 -0.1622912108 0.1922615617 0.0000000000 255 0 0
-0.0775334518 -0.0627682512 0.1867391366 0.0000000000 255 0 0
-0.7420726174 0.9757557147 0.4475171576 1.0000000000 0 0 255
-0.4307306978 0.3476239412 0.3049861681 1.0000000000 0 0 255
-0.8383362900 -0.0016112960 0.3231470129 1.0000000000 0 0 255
0.5770349461 -0.1710426089 0.0613766508 1.0000000000 0 0 255
0.7005258763 -0.5757840890 -0.0175275768 1.0000000000 0 0 255
0.2830721625 -0.8486596299 0.0132634905 1.0000000000 0 0 255
-0.8334038869 -0.8447186947 0.2011051372 1.0000000000 0 0 255
-0.4757725750 0.0981858978 0.2766793901 1.0000000000 0 0 255
0.9488054839 -0.1633900054 0.0001169630 1.0000000000 0 0 255
-0.3507034164 0.4675676272 0.3088070236 1.0000000000 0 0 255
0.2854960787 0.0756001154 0.1457388012 1.0000000000 0 0 255
0.0040617308 0.2430317642 0.2170177755 1.0000000000 0 0 255
0.7753203277 -0.0644289501 0.0434446986 1.0000000000 0 0 255
0.6021309460 0.3970265370 0.1388390653 1.0000000000 0 0 255
-0.0683152635 -0.3304078486 0.1467140449 0.0000000000 255 0 0
0.9111897941 -0.5717810403 -0.0522883215 1.0000000000 0 0 255
-0.1508625900 0.6287176639 0.2984549228 1.0000000000 0 0 255
-0.4012351566 0.5371723193 0.3272902453 1.0000000000 0 0 255
-0.4910988630 -0.4898591426 0.1947062698 1.0000000000 0 0 255
-0.6405059115 -0.6619328439 0.1950282199 1.0000000000 0 0 255
0.2732658876 -0.7378848911 0.0308345842 1.0000000000 0 0 255
-0.1253783310 -0.6986528435 0.1033426601 1.0000000000 0 0 255
-0.4955035465 0.5863802163 0.3501772786 1.0000000000 0 0 255
0.9998250429 -0.0032246502 0.0145862212 1.0000000000 0 0 255
-0.0931269729 -0.9076409635 0.0678864298 1.0000000000 0 0 255
0.4422716359 -1.1888597805 -0.0623512222 1.0000000000 0 0 255
0.3413812921 0.7523504213 0.2336619219 1.0000000000 0 0 255
-0.2477580811 -0.0801482005 0.2127934782 0.0000000000 255 0 0
0.2024168285 0.4919497074 0.2195333808 1.0000000000 0 0 255
-0.1299060002 -0.4027397004 0.1466458956 1.0000000000 0 0 255
-0.2621736582 -0.7439956729 0.1197693940 1.0000000000 0 0 255
-0.0905732290 0.1225920782 0.2155758670 0.0000000000 255 0 0
0.3700007263 0.7470998322 0.2281064824 1.0000000000 0 0 255
0.8251708136 0.3901230863 0.1004343679 1.0000000000 0 0 255
0.6256821851 0.3355309009 0.1260473374 1.0000000000 0 0 255
-0.2405846060 0.1067482523 0.2384605357 0.0000000000 255 0 0
-0.8360271873 -0.9765593398 0.1825902814 1.0000000000 0 0 255
0.5836857542 -0.0499409465 0.0776719860 1.0000000000 0 0 255
0.8815357867 0.5369961255 0.1120959473 1.0000000000 0 0 255
0.2736610729 -0.0995153528 0.1225474237 0.0000000000 255 0 0
0.9151292686 -0.6936027625 -0.0704635696 1.0000000000 0 0 255
-0.6607188380 0.3104511130 0.3382194548 1.0000000000 0 0 255
0.3079668223 0.5686295292 0.2128530209 1.0000000000 0 0 255
-0.3892436707 0.0554399111 0.2560195963 1.0000000000 0 0 255
0.8015921546 -0.1886504703 0.0211784527 1.0000000000 0 0 255
-0.7807538547 -0.1305495456 0.2949506700 1.0000000000 0 0 255
0.7050776994 0.5025501498 0.1367422721 1.0000000000 0 0 255
0.9228262395 0.7010347073 0.1287540010 1.0000000000 0 0 255
-0.7165323854 0.5040999001 0.3754225974 1.0000000000 0 0 255
-0.2130271444 0.1516790101 0.2402978592 0.0000000000 255 0 0
-0.6757526945 0.3233943888 0.3426020680 1.0000000000 0 0 255
0.6999388707 -0.9165168619 -0.0664166587 1.0000000000 0 0 255
0.3500438529 0.3324204732 0.1718350700 1.0000000000 0 0 255
0.7273321790 -1.1414278803 -0.1033472648 1.0000000000 0 0 255
-0.1055427147 0.2501384638 0.2364243045 1.0000000000 0 0 255
-0.5693219537 -0.3128766617 0.2332722022 1.0000000000 0 0 255
-0.7131963522 0.5956591001 0.3880265912 1.0000000000 0 0 255
-0.9193584380 -0.9204928825 0.2046288079 1.0000000000 0 0 255
-0.4211256733 -0.2238718009 0.2212104401 1.0000000000 0 0 255
0.4194517809 -0.0438670321 0.1060934583 1.0000000000 0 0 255
0.6220116921 0.3711892297 0.1317896564 1.0000000000 0 0 255
-0.1772422917 0.7993984659 0.3274187680 1.0000000000 0 0 255
0.1245681912 -0.7205833848 0.0582642419 1.0000000000 0 0 255
0.6612809023 0.2593545992 0.1091241377 1.0000000000 0 0 255
-0.0755183190 0.5626519615 0.2763185104 1.0000000000 0 0 255
-0.3633865815 0.4703194232 0.3113300966 1.0000000000 0 0 255
-0.6219006296 0.1556011887 0.3094452275 1.0000000000 0 0 255
-0.4287625312 -0.0945485456 0.2410843826 1.0000000000 0 0 255
0.8180631534 -0.2492609501 0.0097016075 1.0000000000 0 0 255
-0.8171744501 0.6889381482 0.4188784682 1.0000000000 0 0 255
0.1839392033 0.7609330376 0.2613048185 1.0000000000 0 0 255
-0.4619110317 0.4419928461 0.3237838103 1.0000000000 0 0 255
-0.0003853590 -0.4376794593 0.1198970797 1.0000000000 0 0 255
0.5912655722 -0.8071424354 -0.0324631687 1.0000000000 0 0 255
0.8299655429 -0.6153099105 -0.0449221536 1.0000000000 0 0 255
-0.2637586922 -1.0097266526 0.0818308135 1.0000000000 0 0 255
-0.1279135377 -0.3397723177 0.1553645781 0.0000000000 255 0 0
0.2816009647 0.3391100965 0.1842772932 1.0000000000 0 0 255
-0.6252964971 -0.3807235631 0.2329068123 1.0000000000 0 0 255
0.0885872037 -0.8681522770 0.0430834574 1.0000000000 0 0 255
0.0313095044 -0.0383189114 0.1719971862 0.0000000000 255 0 0
-0.2171166125 -1.0654163102 0.0660006148 1.0000000000 0 0 255
0.9763454177 0.3020171063 0.0624095985 1.0000000000 0 0 255
0.0753236398 0.0845819419 0.1822839570 0.0000000000 255 0 0
0.1412744841 -0.4572012416 0.0933287232 1.0000000000 0 0 255
-0.5342409227 -0.5198817106 0.1976264376 1.0000000000 0 0 255
-0.3775671915 0.6174206097 0.3348576264 1.0000000000 0 0 255
-0.7885638179 -0.3861786743 0.2595085992 1.0000000000 0 0 255
0.7597389906 -0.7082035257 -0.0464979402 1.0000000000 0 0 255
-0.0485084480 -0.2364390479 0.1569016997 0.0000000000 255 0 0
-0.3660613550 0.4346096503 0.3066447214 1.0000000000 0 0 255
0.6852153735 -1.0762009256 -0.0869049367 1.0000000000 0 0 255
-0.4327589250 -0.9033857831 0.1254672630 1.0000000000 0 0 255
0.0268545247 -0.4120457173 0.1190133188 1.0000000000 0 0 255
0.3280420871 -0.4403197677 0.0644278359 1.0000000000 0 0 255
0.3171962567 0.0437085282 0.1358363979 1.0000000000 0 0 255
0.8485684352 0.3957396918 0.0973172121 1.0000000000 0 0 255
0.5892676935 0.1657162649 0.1077409715 1.0000000000 0 0 255
0.6882805445 0.3525976008 0.1180009357 1.0000000000 0 0 255
-0.6296905791 -0.6052807374 0.2013590205 1.0000000000 0 0 255
0.7996161389 -0.6758190299 -0.0485308824 1.0000000000 0 0 255
0.0020239073 -0.8613153544 0.0585863324 1.0000000000 0 0 255
0.1369962182 0.0730424336 0.1702800960 0.0000000000 255 0 0
0.5204514509 -1.0734517711 -0.0588725766 1.0000000000 0 0 255
-0.2123097433 0.5371419057 0.2955959704 1.0000000000 0 0 255
-0.6774042471 -0.4166869520 0.2364767451 1.0000000000 0 0 255
-0.3869716369 -1.0463656341 0.0972306329 1.0000000000 0 0 255
-0.1332755418 -0.3237779451 0.1585635174 0.0000000000 255 0 0
-0.7070539929 -0.5020128632 0.2291827184 1.0000000000 0 0 255
-0.6780646177 0.8949605245 0.4251645891 1.0000000000 0 0 255
-0.1645721889 0.4193346836 0.2706513053 1.0000000000 0 0 255
0.5451375870 -0.4875956889 0.0212158360 1.0000000000 0 0 255
-0.3298367823 0.3036773075 0.2817442028 1.0000000000 0 0 255
-0.5623475513 -0.4333673642 0.2147792447 1.0000000000 0 0 255
0.7779065663 -0.1652665866 0.0285133454 1.0000000000 0 0 255
-0.7354843317 -0.1667028719 0.2821594616 1.0000000000 0 0 255
-0.3539781907 -0.8512623576 0.1197466140 1.0000000000 0 0 255
0.4525792917 0.7337212470 0.2123314943 1.0000000000 0 0 255
-0.9305590677 -0.2629790284 0.3010391024 1.0000000000 0 0 255
-0.4274579662 -0.3103897737 0.2098338149 1.0000000000 0 0 255
0.6032164278 0.0347598947 0.0865734949 1.0000000000 0 0 255
0.3117270357 -0.6492951007 0.0371198587 1.0000000000 0 0 255
0.2854103316 0.1689725561 0.1591774480 1.0000000000 0 0 255
-1.0596568803 -0.8222122831 0.2422920525 1.0000000000 0 0 255
-0.9547148631 -0.9304577732 0.2091267472 1.0000000000 0 0 255
0.5535463548 -0.8788934887 -0.0364519682 1.0000000000 0 0 255
0.4813098652 -0.4845336227 0.0323623840 1.0000000000 0 0 255
0.2432216958 -0.0977637814 0.1279050783 0.0000000000 255 0 0
-0.1717168628 -0.8772369893 0.0854401268 1.0000000000 0 0 255
0.9335384917 -0.6208539779 -0.0630923123 1.0000000000 0 0 255
-0.2057903377 -0.9519727788 0.0804106800 1.0000000000 0 0 255
0.5233879617 0.7919890842 0.2088314497 1.0000000000 0 0 255
0.5451718679 0.1659725547 0.1151743481 1.0000000000 0 0 255
0.2697101339 -0.5012834210 0.0654474849 1.0000000000 0 0 255
-0.5387096179 0.9030789653 0.4029567084 1.0000000000 0 0 255
-0.1300930496 0.8400608825 0.3253561482 1.0000000000 0 0 255
0.9458272486 0.4180438261 0.0842099397 1.0000000000 0 0 255
-0.5412171469 0.5538454725 0.3531676121 1.0000000000 0 0 255
-0.0857605144 0.0748746564 0.2079082047 0.0000000000 255 0 0
0.8400876741 -0.5283353027 -0.0341155760 1.0000000000 0 0 255
0.5691983887 0.0890673413 0.1000874448 1.0000000000 0 0 255
0.7787531133 0.0869732179 0.0646361560 1.0000000000 0 0 255
0.3019986443 0.4397044441 0.1953184004 1.0000000000 0 0 255
0.4054992087 0.0816690761 0.1264823013 1.0000000000 0 0 255
0.3171655090 0.0964313549 0.1434215772 1.0000000000 0 0 255
-0.1493233373 -0.2772161740 0.1679495764 0.0000000000 255 0 0
-0.2313489945 0.7527163165 0.3297829518 1.0000000000 0 0 255
0.1234475113 -0.1612355545 0.1388703067 0.0000000000 255 0 0
0.8378354438 0.1488601379 0.0636233796 1.0000000000 0 0 255
-0.5317738854 0.9324535874 0.4060165484 1.0000000000 0 0 255
-0.0039286747 0.6123594392 0.2714567342 1.0000000000 0 0 255
0.3985080445 0.4234296370 0.1767902938 1.0000000000 0 0 255
-0.6050495917 0.3949308822 0.3410273811 1.0000000000 0 0 255
-0.1034031615 -0.5215832329 0.1251140999 1.0000000000 0 0 255
0.4886886586 -0.4592159933 0.0347646275 1.0000000000 0 0 255
1.0531923396 0.6137651668 0.0943398567 1.0000000000 0 0 255
-0.9898837730 -0.8728260547 0.2233116759 1.0000000000 0 0 255
-0.5104331057 0.8900569827 0.3963414875 1.0000000000 0 0 255
-0.6158696987 -0.9754596043 0.1458196948 1.0000000000 0 0 255
0.8023784023 -0.7621530692 -0.0614065626 1.0000000000 0 0 255
-0.1293334240 0.1313049750 0.2233300737 0.0000000000 255 0 0
0.8198658594 0.4495165029 0.1098632686 1.0000000000 0 0 255
-0.7699334605 -0.8422053753 0.1908201008 1.0000000000 0 0 255
0.7598934802 0.5722347703 0.1375662410 1.0000000000 0 0 255
-0.9836008383 -0.2800588582 0.3074806168 1.0000000000 0 0 255
0.8099435869 -0.1756610814 0.0216451027 1.0000000000 0 0 255
0.2199283452 -0.3494288316 0.0956300745 0.0000000000 255 0 0
-0.0493845885 -0.2620954577 0.1533600097 0.0000000000 255 0 0
0.3644771949 -0.2275960535 0.0888998315 0.0000000000 255 0 0
-0.4680809169 0.1819444416 0.2874312723 1.0000000000 0 0 255
0.1524665508 -0.6944416108 0.0573430701 1.0000000000 0 0 255
0.7695941500 -0.7931229503 -0.0603599853 1.0000000000 0 0 255
-0.7252672220 -0.1917744816 0.2768410934 1.0000000000 0 0 255
0.8827761755 0.3286667468 0.0819361316 1.0000000000 0 0 255
-0.8353586725 -0.2073898743 0.2930625301 1.0000000000 0 0 255
0.0448062515 -0.3702475194 0.1220115138 0.0000000000 255 0 0
-0.3960088812 -0.8601168583 0.1255237209 1.0000000000 0 0 255
-0.5442845795 -1.0052752746 0.1295255427 1.0000000000 0 0 255
-0.6807840287 -0.5274211918 0.2211232720 1.0000000000 0 0 255
0.3539470110 -0.6007678771 0.0370147949 1.0000000000 0 0 255
0.5364691491 -0.8473965249 -0.0290591232 1.0000000000 0 0 255
-0.4578226799 0.9065517380 0.3898882091 1.0000000000 0 0 255
-0.3144942253 0.3077760792 0.2797599637 1.0000000000 0 0 255
-0.4689053530 0.4949865170 0.3325759826 1.0000000000 0 0 255
-0.6385072559 0.1047486821 0.3049196600 1.0000000000 0 0 255
0.1657057428 0.3260783117 0.2018436891 1.0000000000 0 0 255
-0.4105651696 0.5966631778 0.3374083092 1.0000000000 0 0 255
-0.2634149201 -0.1331883492 0.2077940759 0.0000000000 255 0 0
-0.3681525396 -0.1110669644 0.2285429337 0.0000000000 255 0 0
0.9636909121 0.6798561065 0.1188545854 1.0000000000 0 0 255
0.2992752085 -0.9772132919 -0.0079366789 1.0000000000 0 0 255
0.0220906609 0.3476001281 0.2290275600 1.0000000000 0 0 255
0.6543024791 0.1463130347 0.0940425654 1.0000000000 0 0 255
0.0046268420 -0.4736445536 0.1138856018 1.0000000000 0 0 255
-0.7960637895 -0.0667805445 0.3066868653 1.0000000000 0 0 255
0.8876905721 0.4154498083 0.0935887035 1.0000000000 0 0 255
0.7670208332 -1.1023442413 -0.1043854459 1.0000000000 0 0 255
0.7752785910 -0.6797515150 -0.0450139376 1.0000000000 0 0 255
0.6087777152 -0.4211568769 0.0200929761 1.0000000000 0 0 255
-0.0240504941 0.7240907634 0.2908956624 1.0000000000 0 0 255
-0.4891738151 -0.9888548069 0.1226421829 1.0000000000 0 0 255
0.5015424669 -0.6500906486 0.0051662900 1.0000000000 0 0 255
0.8281249752 0.3147792362 0.0891065714 1.0000000000 0 0 255
0.9352672476 -0.2832999929 -0.0148517628 1.0000000000 0 0 255
-0.3198815720 -0.8756074185 0.1105272102 1.0000000000 0 0 255
-0.8189495995 -0.6074109264 0.2327986216 1.0000000000 0 0 255
0.0723731659 0.2475701195 0.2062118613 1.0000000000 0 0 255
0.6286197400 0.5944997088 0.1627868439 1.0000000000 0 0 255
0.6060274988 -0.5185972795 0.0065451715 1.0000000000 0 0 255
-0.5659300955 -0.5165897904 0.2034151877 1.0000000000 0 0 255
0.6425634322 0.6377234584 0.1666622904 1.0000000000 0 0 255
-0.4783226967 -0.2652828628 0.2248508174 1.0000000000 0 0 255
0.8238934950 -0.2149034773 0.0136632534 1.0000000000 0 0 255
0.2414998918 0.0410279276 0.1481481342 0.0000000000 255 0 0
-0.8849250987 -0.4138090496 0.2716995617 1.0000000000 0 0 255
0.5825538431 -0.8134353716 -0.0319066265 1.0000000000 0 0 255
0.3006019143 -0.3843186734 0.0770819278 1.0000000000 0 0 255
0.3912578119 -0.5918142077 0.0320436488 1.0000000000 0 0 255
-0.1641514813 -0.3459706327 0.1605519062 0.0000000000 255 0 0
0.0198021887 0.1633180376 0.2029169735 0.0000000000 255 0 0
0.8265142413 -0.8585715490 -0.0793172476 1.0000000000 0 0 255
-0.4583602802 0.6624987347 0.3548906023 1.0000000000 0 0 255
0.4928036081 -1.0712563458 -0.0539193539 1.0000000000 0 0 255
0.1947773345 -0.3947438699 0.0933338501 1.0000000000 0 0 255
-0.1984399409 -1.0461572537 0.0656367309 1.0000000000 0 0 255
0.4950723683 0.1626815148 0.1231047632 1.0000000000 0 0 255
0.4690223116 -0.7551847488 -0.0044883563 1.0000000000 0 0 255
-0.0610453555 -0.2326101555 0.1595550952 0.0000000000 255 0 0
0.1722658087 -0.3880636329 0.0980703057 1.0000000000 0 0 255
-0.1265944845 -0.8975885222 0.0749454422 1.0000000000 0 0 255
0.1375456624 0.6718978619 0.2562860712 1.0000000000 0 0 255
0.5436064028 0.1499749560 0.1131369423 1.0000000000 0 0 255
-0.4322031615 0.6410777878 0.3474233547 1.0000000000 0 0 255
0.4997735603 0.5794069728 0.1822292975 1.0000000000 0 0 255
-0.8107435269 0.6852932770 0.4172757330 1.0000000000 0 0 255
0.0579730362 -0.8036322855 0.0574947193 1.0000000000 0 0 255
-0.6792793993 0.7888809850 0.4101171756 1.0000000000 0 0 255
0.6762204794 0.4870963685 0.1393609059 1.0000000000 0 0 255
-0.3869458508 0.5347534088 0.3245456214 1.0000000000 0 0 255
-0.4670972800 -0.9423962947 0.1256185112 1.0000000000 0 0 255
-0.6063584463 -0.0299571101 0.2801602871 1.0000000000 0 0 255
-0.0227345497 -0.8306533668 0.0671475669 1.0000000000 0 0 255
-0.0420539387 0.7296485115 0.2947145615 1.0000000000 0 0 255
-0.1313956542 -0.5088805030 0.1316357806 1.0000000000 0 0 255
-0.1436813556 -0.6636234378 0.1114489844 1.0000000000 0 0 255
-0.0801749909 -1.0099222859 0.0510087909 1.0000000000 0 0 255
0.1624962720 -0.3125339667 0.1105680121 0.0000000000 255 0 0
0.5497578959 -0.6412595965 -0.0016516015 1.0000000000 0 0 255
0.1468381064 0.4877910576 0.2282581303 1.0000000000 0 0 255
0.4484840377 0.5070605101 0.1804311462 1.0000000000 0 0 255
-0.2906218415 -0.9257513246 0.0984100048 1.0000000000 0 0 255
-0.2147825224 -0.2780476733 0.1788099998 0.0000000000 255 0 0
-1.0291045950 -0.8860623055 0.2279874928 1.0000000000 0 0 255
-0.0049053180 0.0366536895 0.1888506725 0.0000000000 255 0 0
-0.4185052277 0.0786858751 0.2642699598 1.0000000000 0 0 255
0.4868491668 -0.6080277032 0.0136783478 1.0000000000 0 0 255
-0.1767689182 0.0315196682 0.2169405424 0.0000000000 255 0 0
0.7861510245 -0.4009930580 -0.0067602281 1.0000000000 0 0 255
-0.3034737578 -0.6817491359 0.1356462318 1.0000000000 0 0 255
-0.4091305431 0.9193013781 0.3835537357 1.0000000000 0 0 255
-0.7770085822 0.8126392738 0.4299257944 1.0000000000 0 0 255
0.5593400296 -0.5969555659 0.0031107558 1.0000000000 0 0 255
0.2662467131 0.0369434322 0.1434099282 0.0000000000 255 0 0
0.7118869252 0.3256656544 0.1101692201 1.0000000000 0 0 255
-0.7396065317 -0.7169970488 0.2037344793 1.0000000000 0 0 255
0.1739200095 0.1931204126 0.1813503364 1.0000000000 0 0 255
0.4724720927 -0.5579066603 0.0232958845 1.0000000000 0 0 255
0.9862530120 0.3923985955 0.0737419732 1.0000000000 0 0 255
-0.8042518756 0.8211241814 0.4357154050 1.0000000000 0 0 255
0.7317517953 -0.4441139745 -0.0038349740 1.0000000000 0 0 255
-0.5042070572 0.5110313623 0.3408041930 1.0000000000 0 0 255
-0.4806610097 -0.8758430117 0.1374621016 1.0000000000 0 0 255
-0.8678385628 0.2931723756 0.3704770438 1.0000000000 0 0 255
-0.2992707528 -0.2269956147 0.2003216694 0.0000000000 255 0 0
-0.6505076227 0.1503542313 0.3134893357 1.0000000000 0 0 255
-0.6798054855 0.6760354710 0.3939814899 1.0000000000 0 0 255
0.8782694653 0.4581255248 0.1013045148 1.0000000000 0 0 255
0.1306672242 -0.6372278882 0.0692253207 1.0000000000 0 0 255
-0.8953051183 -0.4665310060 0.2658607850 1.0000000000 0 0 255
-0.2573750310 0.8301249515 0.3452776267 1.0000000000 0 0 255
0.8512513790 -0.2259025232 0.0074929611 1.0000000000 0 0 255
-0.1522628270 -0.8037566328 0.0927413086 1.0000000000 0 0 255
-0.3577726819 -0.1508826880 0.2210774882 0.0000000000 255 0 0
0.7250454983 -0.2522289607 0.0248774549 1.0000000000 0 0 255
0.1274843075 -0.2634997530 0.1234905419 0.0000000000 255 0 0
0.3182776247 -1.0030111499 -0.0148330872 1.0000000000 0 0 255
0.6219838217 0.6448694815 0.1711416577 1.0000000000 0 0 255
0.4444321348 -0.6316388396 0.0173986801 1.0000000000 0 0 255
0.3378169107 -0.7305635174 0.0210595505 1.0000000000 0 0 255
0.7368694950 0.3551977084 0.1102245604 1.0000000000 0 0 255
0.2410779478 0.8307625873 0.2617599756 1.0000000000 0 0 255
0.9152060615 0.4899037989 0.0996776567 1.0000000000 0 0 255
-0.7403330771 -0.4756405858 0.2385564462 1.0000000000 0 0 255
1.0896519509 0.4044657441 0.0581329875 1.0000000000 0 0 255
-0.0120587881 0.1294849425 0.2033970353 0.0000000000 255 0 0
0.8391336092 -0.6956050088 -0.0580041026 1.0000000000 0 0 255
0.1641694745 -0.8647350003 0.0308967718 1.0000000000 0 0 255
-0.6373508917 0.3801202802 0.3443161874 1.0000000000 0 0 255
0.6141348397 0.6249150552 0.1695893564 1.0000000000 0 0 255
-0.9715301286 -0.6005222881 0.2593825064 1.0000000000 0 0 255
-0.6616697461 -0.5195300518 0.2190516057 1.0000000000 0 0 255
-0.6992248600 0.7319165002 0.4052729301 1.0000000000 0 0 255
-0.3549875852 0.6492961255 0.3356529563 1.0000000000 0 0 255
-0.0211598598 -1.0445735967 0.0361278733 1.0000000000 0 0 255
0.5828386016 -0.9369754115 -0.0497158857 1.0000000000 0 0 255
-0.8218563944 0.1617474715 0.3438689931 1.0000000000 0 0 255
0.8401718891 -0.5554449545 -0.0380272880 1.0000000000 0 0 255
0.1350557642 -0.9215844636 0.0276069236 1.0000000000 0 0 255
-0.4407339398 0.0297276982 0.2609597777 1.0000000000 0 0 255
-0.2223100899 0.6894371798 0.3191690726 1.0000000000 0 0 255
0.0473038442 -0.4491050519 0.1102551348 1.0000000000 0 0 255
0.5520180693 -1.1931152311 -0.0813716406 1.0000000000 0 0 255
0.1239591610 0.2562670129 0.1988093109 1.0000000000 0 0 255
-0.7850696122 0.3184645934 0.3602298671 1.0000000000 0 0 255
0.2416213120 0.2594068194 0.1795243533 1.0000000000 0 0 255
0.3701264744 -1.0180742912 -0.0256957359 1.0000000000 0 0 255
-0.5709714376 -0.6665624072 0.1826990739 1.0000000000 0 0 255
0.0125616283 0.1013078984 0.1952162186 0.0000000000 255 0 0
0.7295659661 0.6547166586 0.1545118231 1.0000000000 0 0 255
0.3582598866 0.1358107013 0.1421901176 1.0000000000 0 0 255
0.6521064670 -0.5061257449 0.0006090412 1.0000000000 0 0 255
0.4600091599 0.1129433582 0.1218352706 1.0000000000 0 0 255
0.9449508564 0.7048175531 0.1255867341 1.0000000000 0 0 255
-0.2370100143 -0.3385469128 0.1738403411 0.0000000000 255 0 0
-0.0770369018 0.0455986260 0.2022358778 0.0000000000 255 0 0
0.5240095775 -0.4476896233 0.0304971395 1.0000000000 0 0 255
0.7826832172 -0.8191440964 -0.0662966048 1.0000000000 0 0 255
0.6409265624 -1.0682108115 -0.0783272882 1.0000000000 0 0 255
-0.4293545562 0.7395673135 0.3611054894 1.0000000000 0 0 255
-0.5777764851 -0.1762262351 0.2543367352 1.0000000000 0 0 255
0.1138034018 -0.2368332556 0.1296192179 0.0000000000 255 0 0
0.3610581947 0.2457464446 0.1575263250 1.0000000000 0 0 255
0.0003655099 0.5079297872 0.2557224660 1.0000000000 0 0 255
0.8810630265 -0.2764744680 -0.0047783612 1.0000000000 0 0 255
-0.0205778098 -0.7623394913 0.0766073654 1.0000000000 0 0 255
0.4554256046 0.4819465377 0.1756561193 1.0000000000 0 0 255
0.3203044216 0.0457143862 0.1356034262 1.0000000000 0 0 255
-0.1694597484 -0.0502207975 0.2039625982 0.0000000000 255 0 0
1.0438076637 0.2104535573 0.0379294434 1.0000000000 0 0 255
0.1989521467 0.5261877498 0.2250369813 1.0000000000 0 0 255
0.5434703076 -0.4847030235 0.0219113833 1.0000000000 0 0 255
-0.9524997173 -0.9265563144 0.2093161011 1.0000000000 0 0 255
-0.7752317903 0.4321989779 0.3749314181 1.0000000000 0 0 255
0.4692350399 0.4049034545 0.1622631841 1.0000000000 0 0 255
0.6514775034 -0.3919957639 0.0171231415 1.0000000000 0 0 255
-0.3377881201 -0.0575901394 0.2311381027 0.0000000000 255 0 0
1.0151330297 0.6278891547 0.1027544574 1.0000000000 0 0 255
-0.1856592103 0.4682159066 0.2812161024 1.0000000000 0 0 255
-1.0513428822 -0.9508878865 0.2223976417 1.0000000000 0 0 255
0.5871116134 -1.1075708130 -0.0749593288 1.0000000000 0 0 255
-0.5672934194 0.2155822644 0.3089090917 1.0000000000 0 0 255
-0.4954257624 0.8854975288 0.3931686733 1.0000000000 0 0 255
0.1622023902 -0.6699103516 0.0592368909 1.0000000000 0 0 255
0.7635872122 0.7375061733 0.1607079240 1.0000000000 0 0 255
0.8824832357 -0.9583566512 -0.1030515740 1.0000000000 0 0 255
-0.8629708060 -0.1480420656 0.3062266272 1.0000000000 0 0 255
-0.1367180619 -0.8421145652 0.0846191021 1.0000000000 0 0 255
-0.4620235808 0.6218699447 0.3496638275 1.0000000000 0 0 255
-0.2507123895 0.5558160311 0.3047223401 1.0000000000 0 0 255
0.2294617599 -1.1318403476 -0.0184572467 1.0000000000 0 0 255
-0.7673458808 0.0211376861 0.3145098969 1.0000000000 0 0 255
-0.5913150742 -0.1846827509 0.2553918631 1.0000000000 0 0 255
-0.8727851923 -0.4788099172 0.2603179925 1.0000000000 0 0 255
0.2008785892 0.2353618351 0.1829014662 1.0000000000 0 0 255
-0.7241686038 -0.7232232758 0.2002498059 1.0000000000 0 0 255
0.9296481326 -0.2865916736 -0.0143824745 1.0000000000 0 0 255
0.5692251992 -0.9978482297 -0.0561841612 1.0000000000 0 0 255
-0.6447059681 -0.1250137337 0.2729262091 1.0000000000 0 0 255
1.0420901384 0.1776764924 0.0335051405 1.0000000000 0 0 255
-0.8679452157 0.1853241803 0.3549894738 1.0000000000 0 0 255
0.7774051317 0.4608968498 0.1186216964 1.0000000000 0 0 255
-0.0439181208 0.3580096009 0.2415962989 1.0000000000 0 0 255
-0.7708593457 -0.6247575316 0.2222381346 1.0000000000 0 0 255
0.5997608067 0.6630425670 0.1774820592 1.0000000000 0 0 255
0.7344119206 -1.1399514220 -0.1043225318 1.0000000000 0 0 255
-0.3715996799 -0.8353139735 0.1249953186 1.0000000000 0 0 255
-0.9495727351 -0.8590884085 0.2185250749 1.0000000000 0 0 255
-0.0410430283 0.0932232534 0.2030453982 0.0000000000 255 0 0
0.6165988809 0.0654469891 0.0887406729 1.0000000000 0 0 255
0.2740822311 -0.5107947038 0.0633466716 1.0000000000 0 0 255
0.0128955928 -0.2820117425 0.1400498920 0.0000000000 255 0 0
0.1890700990 -0.1346205653 0.1316893967 0.0000000000 255 0 0
0.3187544886 -1.0531800221 -0.0221259120 1.0000000000 0 0 255
-0.4225304939 -0.4491864340 0.1890523360 1.0000000000 0 0 255
-0.4342526348 -0.6519171862 0.1618717454 1.0000000000 0 0 255
-0.3675674103 -0.2370468514 0.2103325114 0.0000000000 255 0 0
-0.9282104638 0.0164257955 0.3408155079 1.0000000000 0 0 255
-0.3479992492 -0.0752412887 0.2303131672 0.0000000000 255 0 0
-0.8585625956 -0.5608716232 0.2461342214 1.0000000000 0 0 255
-0.7325962603 0.7693820003 0.4162570282 1.0000000000 0 0 255
-0.1373008999 -0.6155539659 0.1172897454 1.0000000000 0 0 255
-0.0091836192 -0.8567606931 0.0611210854 1.0000000000 0 0 255
0.0388737800 -0.7910501291 0.0625073346 1.0000000000 0 0 255
0.4854245611 -1.1724358079 -0.0672282983 1.0000000000 0 0 255
0.9927959129 0.3769927466 0.0704295658 1.0000000000 0 0 255
-0.4973071635 0.1586395353 0.2889830405 1.0000000000 0 0 255
-0.1757342586 -0.1615122693 0.1890145661 0.0000000000 255 0 0
-0.4500359945 -0.4952691925 0.1870406721 1.0000000000 0 0 255
-0.0060110599 -0.1959823902 0.1555897887 0.0000000000 255 0 0
0.4911727950 0.0175371015 0.1028912882 1.0000000000 0 0 255
-0.1439760396 0.3495623672 0.2571653092 1.0000000000 0 0 255
0.7442753715 0.5747032873 0.1405408872 1.0000000000 0 0 255
0.8123068585 -0.5855220258 -0.0376774890 1.0000000000 0 0 255
0.1871339909 -0.1430541748 0.1308016451 0.0000000000 255 0 0
0.6830112476 -0.7638898658 -0.0416338995 1.0000000000 0 0 255
-0.6651152902 0.7967072639 0.4088665145 1.0000000000 0 0 255
0.8523216228 0.2358109194 0.0736945166 1.0000000000 0 0 255
0.9258589896 0.5298584462 0.1036350856 1.0000000000 0 0 255
0.9601411611 -0.2051350135 -0.0077861848 1.0000000000 0 0 255
0.1431193836 -0.6213537293 0.0694188711 1.0000000000 0 0 255
1.0593733687 0.5353488303 0.0820290580 1.0000000000 0 0 255
0.9180709533 -0.5109736885 -0.0447002076 1.0000000000 0 0 255
0.4700932992 -0.8213127559 -0.0141753013 1.0000000000 0 0 255
-0.5575761338 0.3726499671 0.3298609425 1.0000000000 0 0 255
0.9604757753 -0.1210712740 0.0042436289 1.0000000000 0 0 255
0.6930604902 -1.1825746506 -0.1035143315 1.0000000000 0 0 255
0.1600730875 -0.0007861377 0.1557948174 0.0000000000 255 0 0
-0.0871697312 0.5720150298 0.2796190299 1.0000000000 0 0 255
-0.6926148445 0.2014716073 0.3279015059 1.0000000000 0 0 255
0.5069534046 -0.2507032336 0.0616790628 1.0000000000 0 0 255
-0.1647569281 0.8151168390 0.3275843513 1.0000000000 0 0 255
-0.7541536170 0.7423701592 0.4159894847 1.0000000000 0 0 255
-0.1435980070 0.7907721357 0.3205351377 1.0000000000 0 0 255
0.1008267742 -0.8235236872 0.0474467248 1.0000000000 0 0 255
0.5837190806 -0.4219735144 0.0241788433 1.0000000000 0 0 255
-1.0453448793 -0.8962533285 0.2292464245 1.0000000000 0 0 255
0.4355978009 -0.8506020402 -0.0126000623 1.0000000000 0 0 255
-0.7519353255 -0.8778982721 0.1826695271 1.0000000000 0 0 255
0.0178026232 0.0246778219 0.1833199118 0.0000000000 255 0 0
0.7925779120 -0.3108877232 0.0051162892 1.0000000000 0 0 255
1.0647386931 0.6496532118 0.0975627644 1.0000000000 0 0 255
0.2722525062 0.4311862117 0.1990832711 1.0000000000 0 0 255
-0.6284008017 0.8428704034 0.4093450410 1.0000000000 0 0 255
-0.8301694298 -0.1923439560 0.2943552679 1.0000000000 0 0 255
0.8276971319 -0.3985414624 -0.0133766052 1.0000000000 0 0 255
-0.5661190234 -0.0767775522 0.2666791923 1.0000000000 0 0 255
0.1910322700 0.1750357741 0.1758799169 1.0000000000 0 0 255
-0.0959791545 -1.0410785684 0.0491803692 1.0000000000 0 0 255
0.6446986488 -0.4483685479 0.0101554302 1.0000000000 0 0 255
-0.0641099071 0.2275368473 0.2262250028 1.0000000000 0 0 255
0.1348184611 0.4516519243 0.2250785123 1.0000000000 0 0 255
0.2879258986 -0.8317541601 0.0148798552 1.0000000000 0 0 255
0.9022804761 -0.6402428476 -0.0606367268 1.0000000000 0 0 255
0.9503901599 -0.2053594306 -0.0061828396 1.0000000000 0 0 255
0.1596165750 -0.5467720981 0.0773743586 1.0000000000 0 0 255
-0.6966697910 0.4913625697 0.3702596321 1.0000000000 0 0 255
-0.1243015208 0.4489200810 0.2681499254 1.0000000000 0 0 255
0.6295215333 -0.4279712659 0.0156337445 1.0000000000 0 0 255
-0.0336177221 0.0103815523 0.1898896477 0.0000000000 255 0 0
-0.6202318441 -0.1976591964 0.2583766551 1.0000000000 0 0 255
-0.5075395664 -0.6854550894 0.1693429390 1.0000000000 0 0 255
-0.1382394794 -0.0805057577 0.1943716804 0.0000000000 255 0 0
0.7171444416 -1.1048048421 -0.0963730613 1.0000000000 0 0 255
-0.1259753233 -1.0898330433 0.0472023684 1.0000000000 0 0 255
-0.8690594393 0.2821905126 0.3691029556 1.0000000000 0 0 255
0.0598595601 -1.1268780985 0.0107048538 1.0000000000 0 0 255
0.7084722815 -0.1731420232 0.0390278276 1.0000000000 0 0 255
0.4938664661 -0.1940798374 0.0720150461 0.0000000000 255 0 0
0.1675858535 0.6736630181 0.2515009791 1.0000000000 0 0 255
-0.5348962248 -0.5518150414 0.1931452645 1.0000000000 0 0 255
-0.4682279739 0.1146596321 0.2777823244 1.0000000000 0 0 255
-0.9475575654 -0.9954503457 0.1985821417 1.0000000000 0 0 255
-0.6309199846 0.6141524032 0.3768845513 1.0000000000 0 0 255
-1.0831361088 -0.8097616298 0.2480204476 1.0000000000 0 0 255
-0.7689205258 0.7855852827 0.4246795393 1.0000000000 0 0 255
0.0117406738 0.3564362863 0.2320340270 1.0000000000 0 0 255
-0.5588021039 -0.5610569274 0.1958264635 1.0000000000 0 0 255
-0.0354839647 -0.9343801724 0.0543732008 1.0000000000 0 0 255
0.7995006148 -0.5431124178 -0.0294321215 1.0000000000 0 0 255
0.8310849749 -0.7751683262 -0.0680929538 1.0000000000 0 0 255
-0.2623400251 -0.8154847245 0.1095192364 1.0000000000 0 0 255
0.4138479235 0.7963116396 0.2278268956 1.0000000000 0 0 255
0.1320103102 0.3434734994 0.2099966076 1.0000000000 0 0 255
0.7997567671 0.1721240798 0.0733552907 1.0000000000 0 0 255
0.7123654609 -1.0875426963 -0.0930896477 1.0000000000 0 0 255
0.6934381818 -0.4671625775 -0.0007220633 1.0000000000 0 0 255
0.0939198689 -0.3599650660 0.1152516319 0.0000000000 255 0 0
-0.2189843099 -0.1764128402 0.1941269552 0.0000000000 255 0 0
0.7758565161 -0.1058217670 0.0374036664 1.0000000000 0 0 255
-0.2804094000 0.1945314930 0.2577613505 0.0000000000 255 0 0
0.7643032971 0.2577517283 0.0916129580 1.0000000000 0 0 255
-0.3270701975 -0.2400707123 0.2031048607 0.0000000000 255 0 0
0.1446513099 -0.5226378221 0.0833544096 1.0000000000 0 0 255
-0.7941596393 0.0800547970 0.3274781545 1.0000000000 0 0 255
-0.6856912730 -0.4760242446 0.2293358001 1.0000000000 0 0 255
-0.1325192604 0.2875761763 0.2463317498 1.0000000000 0 0 255
0.3842066968 -0.7645666673 0.0083895652 1.0000000000 0 0 255
0.6953552149 -0.2642572583 0.0281283106 1.0000000000 0 0 255
1.0140574468 0.5125706828 0.0863554031 1.0000000000 0 0 255
0.3704182512 0.1259244221 0.1387293405 1.0000000000 0 0 255
0.1536906189 0.0908449233 0.1700393012 0.0000000000 255 0 0
0.7892655435 -0.5086142924 -0.0227554795 1.0000000000 0 0 255
-0.2976324053 -0.7507087043 0.1247520202 1.0000000000 0 0 255
-0.1865094624 0.7878169653 0.3273081356 1.0000000000 0 0 255
1.0024966597 -0.0443871792 0.0082201061 1.0000000000 0 0 255
-0.3334913922 0.1476646695 0.2599271010 0.0000000000 255 0 0
-0.6029128399 -0.0507039196 0.2765995364 1.0000000000 0 0 255
-0.2207053582 -1.0118141678 0.0743090246 1.0000000000 0 0 255
0.2599371604 0.3802153311 0.1938208757 1.0000000000 0 0 255
-0.1355488000 -0.3419121421 0.1563376539 0.0000000000 255 0 0
0.6665531983 0.3407290347 0.1199390719 1.0000000000 0 0 255
-0.2119132196 -0.4406289652 0.1549542093 1.0000000000 0 0 255
-0.6854317065 -0.1208336038 0.2803584303 1.0000000000 0 0 255
0.1337135983 0.8281331229 0.2793909768 1.0000000000 0 0 255
1.0018965541 0.2049538391 0.0441688130 1.0000000000 0 0 255
-0.4594385341 -0.5712186733 0.1776984872 1.0000000000 0 0 255
-0.2474064898 0.2659702683 0.2624963558 1.0000000000 0 0 255
0.3453824727 0.4955316250 0.1960676379 1.0000000000 0 0 255
0.6487212791 -0.3161865035 0.0284846491 1.0000000000 0 0 255
0.0893343520 0.0132395027 0.1696768482 0.0000000000 255 0 0
-0.0214134739 0.6359293963 0.2777782731 1.0000000000 0 0 255
-0.9329018507 -0.3447530870 0.2896753243 1.0000000000 0 0 255
0.0014438197 0.5113100533 0.2560275776 1.0000000000 0 0 255
0.9711936664 -0.2597635221 -0.0174941098 1.0000000000 0 0 255
-0.8070925187 -0.0667964440 0.3085345124 1.0000000000 0 0 255
-0.9839662512 -0.8667149235 0.2231976891 1.0000000000 0 0 255
-0.6441933784 -0.8737650337 0.1651913879 1.0000000000 0 0 255
0.7503928996 0.0872385852 0.0694313834 1.0000000000 0 0 255
0.7545421962 -1.0583275745 -0.0959639817 1.0000000000 0 0 255
0.3041987141 -0.7557434583 0.0230784381 1.0000000000 0 0 255
0.3328071010 -0.8300631873 0.0075947015 1.0000000000 0 0 255
0.6775899523 -0.3763431640 0.0149934934 1.0000000000 0 0 255
-0.1569093997 0.4631949556 0.2756718092 1.0000000000 0 0 255
0.9817467618 0.1353775936 0.0375456342 1.0000000000 0 0 255
-0.2938278288 0.6135853912 0.3202599898 1.0000000000 0 0 255
0.1718940005 0.1520145387 0.1757803354 1.0000000000 0 0 255
-0.5020246276 0.9341679440 0.4012729532 1.0000000000 0 0 255
-0.7692899776 -1.0051526456 0.1672850469 1.0000000000 0 0 255
-0.7878251611 0.3729309300 0.3685227646 1.0000000000 0 0 255
-0.4165339092 -0.9455569802 0.1166827154 1.0000000000 0 0 255
0.7228508403 -0.5367070365 -0.0156541604 1.0000000000 0 0 255
-0.7060587726 0.0144159503 0.3032633504 1.0000000000 0 0 255
-0.3380059997 0.7469581155 0.3468454826 1.0000000000 0 0 255
0.4926501180 0.0816144277 0.1118559569 1.0000000000 0 0 255
0.4173625038 -0.7801424943 0.0005887338 1.0000000000 0 0 255
-0.6780612069 0.1744714708 0.3215784723 1.0000000000 0 0 255
-0.2207707368 0.8881253120 0.3474764878 1.0000000000 0 0 255
-0.2750496671 0.7599974411 0.3381600151 1.0000000000 0 0 255
0.3617865324 0.0278862970 0.1260821499 1.0000000000 0 0 255
0.9698019281 -0.3351272517 -0.0280957934 1.0000000000 0 0 255
-0.9907808977 -0.5556121429 0.2690683685 1.0000000000 0 0 255
0.2542280067 0.0327789371 0.1448271834 0.0000000000 255 0 0
-0.9198708110 0.0730482777 0.3475573140 1.0000000000 0 0 255
0.5991213465 -0.7047741784 -0.0190632750 1.0000000000 0 0 255
-0.4494877188 -0.1111517534 0.2421737142 1.0000000000 0 0 255
0.6645468927 0.6145383349 0.1596414847 1.0000000000 0 0 255
0.3769156636 -0.5039881442 0.0470762216 1.0000000000 0 0 255
0.9172436229 0.5226460842 0.1040432772 1.0000000000 0 0 255
0.2793619826 -0.0449834494 0.1294312814 0.0000000000 255 0 0
0.7783446101 0.7447536760 0.1592745348 1.0000000000 0 0 255
-0.2236422465 0.8747322660 0.3460326143 1.0000000000 0 0 255
-0.7827757013 -0.6404205097 0.2219850714 1.0000000000 0 0 255
-0.6807138324 0.7207055905 0.4005561286 1.0000000000 0 0 255
-0.2874251734 -0.7265893700 0.1265075478 1.0000000000 0 0 255
-0.1475244325 -0.9788803894 0.0667687565 1.0000000000 0 0 255
-0.4438671269 0.4024268257 0.3150687158 1.0000000000 0 0 255
0.8308269605 0.1116842085 0.0594541397 1.0000000000 0 0 255
0.6550712147 0.4553234821 0.1383404090 1.0000000000 0 0 255
0.3956164833 -0.3266200925 0.0694398002 1.0000000000 0 0 255
0.1084143079 -0.2588262568 0.1273612126 0.0000000000 255 0 0
-0.6639085814 -0.2519786032 0.2578933239 1.0000000000 0 0 255
-0.7505706705 -0.4754984603 0.2402941095 1.0000000000 0 0 255
0.0367736766 0.6498238970 0.2700157264 1.0000000000 0 0 255
0.8478235932 0.5822725735 0.1242601983 1.0000000000 0 0 255
-0.2815632231 -0.9698254438 0.0905539464 1.0000000000 0 0 255
0.9168092860 -0.0803681212 0.0174200820 1.0000000000 0 0 255
0.2801691787 -0.3959210819 0.0788411748 1.0000000000 0 0 255
0.0357635905 0.4564673284 0.2423860584 1.0000000000 0 0 255
0.7608713564 0.1268553310 0.0733694972 1.0000000000 0 0 255
-0.2881104796 0.5915192475 0.3161285001 1.0000000000 0 0 255
0.6843829950 -1.0903536121 -0.0888000636 1.0000000000 0 0 255
0.9104036862 -0.5338664125 -0.0467054318 1.0000000000 0 0 255
0.0629669387 -0.1899620256 0.1448851370 0.0000000000 255 0 0
-0.3676897123 -0.6730135919 0.1476735835 1.0000000000 0 0 255
-0.1990469941 -1.0890375354 0.0595736089 1.0000000000 0 0 255
0.9287018253 0.2643397372 0.0649843031 1.0000000000 0 0 255
0.1897920935 0.2723997921 0.1900860787 1.0000000000 0 0 255
-0.3363143793 -0.9384888439 0.1042430752 1.0000000000 0 0 255
0.0571296121 0.0145339281 0.1752648962 0.0000000000 255 0 0
-0.4430456554 0.4292953780 0.3187938470 1.0000000000 0 0 255
-0.4049134806 -0.4927889636 0.1798285137 1.0000000000 0 0 255
0.6682888547 -0.6270200537 -0.0194864689 1.0000000000 0 0 255
0.0135205671 -0.6589619605 0.0857504914 1.0000000000 0 0 255
0.6939809099 0.2854407949 0.1073895582 1.0000000000 0 0 255
1.0014575083 0.6507308382 0.1083323323 1.0000000000 0 0 255
-0.6932492930 0.3065364226 0.3431132168 1.0000000000 0 0 255
0.5222867459 -1.1236546651 -0.0663981528 1.0000000000 0 0 255
1.0343822025 -0.0053516850 0.0084838786 1.0000000000 0 0 255
-0.3608572874 -0.8587580379 0.1198228348 1.0000000000 0 0 255
0.0831765820 0.4920874989 0.2395542683 1.0000000000 0 0 255
0.3350758727 0.4020654728 0.1843587058 1.0000000000 0 0 255
0.3463655560 -0.3462841753 0.0748739064 1.0000000000 0 0 255
0.2077068946 0.4846554326 0.2175973313 1.0000000000 0 0 255
-0.5154513837 0.0479350711 0.2761104003 1.0000000000 0 0 255
-0.2433950423 -0.7564287428 0.1148319965 1.0000000000 0 0 255
-0.8105252341 0.6418791927 0.4109974240 1.0000000000 0 0 255
-0.9610102750 -0.6938475549 0.2442004495 1.0000000000 0 0 255
0.7245668767 -1.2273259518 -0.1152330847 1.0000000000 0 0 255
-0.4992671793 0.7178447859 0.3697093947 1.0000000000 0 0 255
-0.4890565872 -0.8348567278 0.1447630014 1.0000000000 0 0 255
-0.7303621220 -0.4535480572 0.2400602101 1.0000000000 0 0 255
-0.2383935447 0.0995170489 0.2370533737 0.0000000000 255 0 0
0.9186012283 0.3214712351 0.0748924149 1.0000000000 0 0 255
-0.6941682372 -0.3085569822 0.2548346680 1.0000000000 0 0 255
0.1577135285 -0.2285683808 0.1234420876 0.0000000000 255 0 0
-0.8687129216 -0.6378029660 0.2367763049 1.0000000000 0 0 255
0.6358656401 -0.5663849481 -0.0053302962 1.0000000000 0 0 255
0.1078019904 0.7586612451 0.2737492764 1.0000000000 0 0 255
-0.4423017587 -0.6406857814 0.1648366385 1.0000000000 0 0 255
-0.1829234795 -0.1124539414 0.1972736416 0.0000000000 255 0 0
0.0039066112 -0.0860591753 0.1697300098 0.0000000000 255 0 0
0.5966822322 -0.9771342452 -0.0578116655 1.0000000000 0 0 255
0.1980712322 0.0569968282 0.1577286222 0.0000000000 255 0 0
0.2947993173 -0.2754474252 0.0937077870 0.0000000000 255 0 0
-0.1332763323 -0.7643687720 0.0952193972 1.0000000000 0 0 255
1.0374336232 0.5209673964 0.0836415437 1.0000000000 0 0 255
0.8323794885 -0.8392417055 -0.0775219963 1.0000000000 0 0 255
0.4989528256 0.5826399139 0.1828317693 1.0000000000 0 0 255
0.2306274791 0.5819710872 0.2277438708 1.0000000000 0 0 255
0.4274019312 0.5366575034 0.1882226029 1.0000000000 0 0 255
-0.2080295056 0.3572909104 0.2690206278 1.0000000000 0 0 255
0.7386688220 -1.2025566922 -0.1140374065 1.0000000000 0 0 255
-0.2479623330 0.4269915273 0.2857398042 1.0000000000 0 0 255
0.0365414792 0.0698391579 0.1866695978 0.0000000000 255 0 0
-0.7263603420 0.7820739675 0.4170357688 1.0000000000 0 0 255
-0.0821104835 0.4361492829 0.2592368281 1.0000000000 0 0 255
0.4800130795 -0.1144899954 0.0857815041 1.0000000000 0 0 255
0.8411465817 -0.0309075639 0.0372225667 1.0000000000 0 0 255
0.6241493347 -0.0897936938 0.0651550451 1.0000000000 0 0 255
-0.1011201699 -0.1012282984 0.1851660715 0.0000000000 255 0 0
0.3194774501 -0.5978352703 0.0432182619 1.0000000000 0 0 255
0.3032408483 -1.1614516517 -0.0350900280 1.0000000000 0 0 255
0.9208754933 0.4566659275 0.0939480324 1.0000000000 0 0 255
0.3371889226 -0.4210065293 0.0656702540 1.0000000000 0 0 255
0.0343793937 0.5307775213 0.2533019027 1.0000000000 0 0 255
0.2456878746 -0.9908623404 -0.0009104056 1.0000000000 0 0 255
-0.0996703451 0.3078500477 0.2437365483 1.0000000000 0 0 255
0.0329557565 0.5300197612 0.2534317562 1.0000000000 0 0 255
0.7329919863 -0.9197526351 -0.0724261211 1.0000000000 0 0 255
0.4563355223 -0.4535933147 0.0409998451 1.0000000000 0 0 255
0.0166109367 -0.2502482490 0.1439933632 0.0000000000 255 0 0
0.7751366787 -0.5052518360 -0.0199021128 1.0000000000 0 0 255
-0.0150173815 0.3136258576 0.2303674551 1.0000000000 0 0 255
0.7550264725 0.7280684095 0.1607870040 1.0000000000 0 0 255
0.4681671393 -1.1144027266 -0.0559900959 1.0000000000 0 0 255
-0.3234342724 0.4389718450 0.3001217131 1.0000000000 0 0 255
0.4844751984 -1.0156786343 -0.0445318943 1.0000000000 0 0 255
-0.3925463814 0.9144913655 0.3800804065 1.0000000000 0 0 255
-1.0214917228 -0.6258024853 0.2641283830 1.0000000000 0 0 255
-0.1104415779 -0.0581733670 0.1929196797 0.0000000000 255 0 0
0.6933044917 0.4345279941 0.1289374581 1.0000000000 0 0 255
0.1053519274 0.0985438610 0.1792544042 0.0000000000 255 0 0
1.0361107318 0.3622261799 0.0610410341 1.0000000000 0 0 255
-0.6354734179 -0.0843280931 0.2772269845 1.0000000000 0 0 255
0.9686910688 -0.3450537397 -0.0293366032 1.0000000000 0 0 255
0.1044691644 -0.3156975576 0.1198465089 0.0000000000 255 0 0
-0.1982337016 0.3440904658 0.2654796596 1.0000000000 0 0 255
-0.7196888431 -0.2814237653 0.2630164081 1.0000000000 0 0 255
-0.5162041676 0.7892843421 0.3828213127 1.0000000000 0 0 255
-0.4428143770 0.7706809441 0.3678364506 1.0000000000 0 0 255
0.1002495537 -0.5490561509 0.0870040615 1.0000000000 0 0 255
0.7241287837 -0.2031473992 0.0320877353 1.0000000000 0 0 255
0.5187478345 0.3843164226 0.1509982035 1.0000000000 0 0 255
-0.1646947489 0.7846409584 0.3231923689 1.0000000000 0 0 255
0.5052847941 -1.0466458705 -0.0524746420 1.0000000000 0 0 255
-0.1231843007 0.8025886594 0.3188098661 1.0000000000 0 0 255
0.3333412587 0.6730535912 0.2236099411 1.0000000000 0 0 255
