ply
format ascii 1.0
element vertex 769
property float x
property float y
property float z
property float quality
property uchar red
property uchar green
property uchar blue
element face 0
property list uchar int vertex_index
end_header
0.3874004451 -0.1222676814 -0.4225637271 0.5000000000 0 255 0
0.4018992491 -0.1386416872 -0.4170395022 0.5000000000 0 255 0
0.3292082892 -0.0536271132 -0.4454070623 0.5000000000 0 255 0
0.3321474380 -0.0575308234 -0.4441529301 0.5000000000 0 255 0
0.3350865868 -0.0614345336 -0.4428987980 0.5000000000 0 255 0
0.3380257357 -0.0653382438 -0.4416446658 0.5000000000 0 255 0
0.3409648845 -0.0692419540 -0.4403905337 0.5000000000 0 255 0
0.3007726640 -0.0079962808 -0.4593472129 0.5000000000 0 255 0
0.3064597890 -0.0171224473 -0.4565591828 0.5000000000 0 255 0
0.3121469141 -0.0262486138 -0.4537711527 0.5000000000 0 255 0
0.3178340391 -0.0353747802 -0.4509831225 0.5000000000 0 255 0
0.3235211642 -0.0445009467 -0.4481950924 0.5000000000 0 255 0
0.2248924949 0.1074808651 -0.4951015489 0.5000000000 0 255 0
0.2400685287 0.0843854359 -0.4879506817 0.5000000000 0 255 0
0.2552445625 0.0612900067 -0.4807998145 0.5000000000 0 255 0
0.2704205964 0.0381945776 -0.4736489473 0.5000000000 0 255 0
0.2855966302 0.0150991484 -0.4664980801 0.5000000000 0 255 0
0.1662442681 0.1983687071 -0.5231119200 0.5000000000 0 255 0
0.1779739135 0.1801911387 -0.5175098458 0.5000000000 0 255 0
0.1897035588 0.1620135703 -0.5119077716 0.5000000000 0 255 0
0.2014332042 0.1438360019 -0.5063056974 0.5000000000 0 255 0
0.2131628495 0.1256584335 -0.5007036231 0.5000000000 0 255 0
0.0175676931 0.3598656804 -0.5782870672 0.5000000000 0 255 0
0.0473030081 0.3275662857 -0.5672520378 0.5000000000 0 255 0
0.0770383231 0.2952668911 -0.5562170084 0.5000000000 0 255 0
0.1067736381 0.2629674964 -0.5451819789 0.5000000000 0 255 0
0.1365089531 0.2306681018 -0.5341469495 0.5000000000 0 255 0
0.0107305284 0.3677285844 -0.5809246133 0.5000000000 0 255 0
0.0120979613 0.3661560036 -0.5803971041 0.5000000000 0 255 0
0.0134653943 0.3645834228 -0.5798695949 0.5000000000 0 255 0
0.0148328272 0.3630108420 -0.5793420857 0.5000000000 0 255 0
0.0162002602 0.3614382612 -0.5788145765 0.5000000000 0 255 0
0.0043243070 0.3729468069 -0.5829021348 0.5000000000 0 255 0
0.0056055513 0.3719031624 -0.5825066305 0.5000000000 0 255 0
0.0068867956 0.3708595179 -0.5821111262 0.5000000000 0 255 0
0.0081680398 0.3698158734 -0.5817156219 0.5000000000 0 255 0
0.0094492841 0.3687722289 -0.5813201176 0.5000000000 0 255 0
-0.0746788850 0.4074217681 -0.6004246860 0.5000000000 0 255 0
-0.0588782466 0.4005267759 -0.5969201757 0.5000000000 0 255 0
-0.0430776082 0.3936317836 -0.5934156655 0.5000000000 0 255 0
-0.0272769698 0.3867367914 -0.5899111553 0.5000000000 0 255 0
-0.0114763314 0.3798417991 -0.5864066450 0.5000000000 0 255 0
-0.1154103714 0.4205633892 -0.6083943550 0.5000000000 0 255 0
-0.1072640741 0.4179350650 -0.6068004212 0.5000000000 0 255 0
-0.0991177768 0.4153067408 -0.6052064874 0.5000000000 0 255 0
-0.0909714796 0.4126784165 -0.6036125536 0.5000000000 0 255 0
-0.0828251823 0.4100500923 -0.6020186198 0.5000000000 0 255 0
-0.1272482432 0.4215082795 -0.6100501442 0.5000000000 0 255 0
-0.1248806688 0.4213193014 -0.6097189864 0.5000000000 0 255 0
-0.1225130945 0.4211303234 -0.6093878285 0.5000000000 0 255 0
-0.1201455201 0.4209413453 -0.6090566707 0.5000000000 0 255 0
-0.1177779458 0.4207523673 -0.6087255128 0.5000000000 0 255 0
-0.1392930022 0.4209472102 -0.6113850627 0.5000000000 0 255 0
-0.1368840504 0.4210594241 -0.6111180790 0.5000000000 0 255 0
-0.1344750986 0.4211716379 -0.6108510953 0.5000000000 0 255 0
-0.1320661468 0.4212838518 -0.6105841116 0.5000000000 0 255 0
-0.1296571950 0.4213960656 -0.6103171279 0.5000000000 0 255 0
-0.1857941271 0.4202687663 -0.6168805866 0.5000000000 0 255 0
-0.1764939021 0.4204044551 -0.6157814818 0.5000000000 0 255 0
-0.1671936771 0.4205401439 -0.6146823770 0.5000000000 0 255 0
-0.1578934522 0.4206758326 -0.6135832722 0.5000000000 0 255 0
-0.1485932272 0.4208115214 -0.6124841675 0.5000000000 0 255 0
-0.2476357913 0.3969055503 -0.6190283577 0.5000000000 0 255 0
-0.2352674585 0.4015781935 -0.6185988035 0.5000000000 0 255 0
-0.2228991256 0.4062508367 -0.6181692493 0.5000000000 0 255 0
-0.2105307928 0.4109234799 -0.6177396950 0.5000000000 0 255 0
-0.1981624599 0.4155961231 -0.6173101408 0.5000000000 0 255 0
-0.2749106410 0.3835478267 -0.6192740273 0.5000000000 0 255 0
-0.2694556711 0.3862193714 -0.6192248934 0.5000000000 0 255 0
-0.2640007011 0.3888909161 -0.6191757595 0.5000000000 0 255 0
-0.2585457312 0.3915624609 -0.6191266255 0.5000000000 0 255 0
-0.2530907612 0.3942340056 -0.6190774916 0.5000000000 0 255 0
-0.3095145566 0.3571986264 -0.6174254525 0.5000000000 0 255 0
-0.3025937735 0.3624684665 -0.6177951675 0.5000000000 0 255 0
-0.2956729904 0.3677383065 -0.6181648824 0.5000000000 0 255 0
-0.2887522072 0.3730081466 -0.6185345974 0.5000000000 0 255 0
-0.2818314241 0.3782779866 -0.6189043124 0.5000000000 0 255 0
-0.3687223185 0.2985767669 -0.6111519740 0.5000000000 0 255 0
-0.3568807661 0.3103011388 -0.6124066697 0.5000000000 0 255 0
-0.3450392137 0.3220255107 -0.6136613654 0.5000000000 0 255 0
-0.3331976614 0.3337498826 -0.6149160611 0.5000000000 0 255 0
-0.3213561090 0.3454742545 -0.6161707568 0.5000000000 0 255 0
-0.4150530197 0.2346463150 -0.6020937920 0.5000000000 0 255 0
-0.4057868795 0.2474324054 -0.6039054284 0.5000000000 0 255 0
-0.3965207392 0.2602184958 -0.6057170648 0.5000000000 0 255 0
-0.3872545990 0.2730045861 -0.6075287012 0.5000000000 0 255 0
-0.3779884587 0.2857906765 -0.6093403376 0.5000000000 0 255 0
-0.4356394748 0.2031261906 -0.5973535490 0.5000000000 0 255 0
-0.4315221838 0.2094302155 -0.5983015976 0.5000000000 0 255 0
-0.4274048928 0.2157342404 -0.5992496462 0.5000000000 0 255 0
-0.4232876017 0.2220382652 -0.6001976948 0.5000000000 0 255 0
-0.4191703107 0.2283422901 -0.6011457434 0.5000000000 0 255 0
-0.4730882375 0.0853027540 -0.5748332882 0.5000000000 0 255 0
-0.4655984850 0.1088674413 -0.5793373403 0.5000000000 0 255 0
-0.4581087324 0.1324321286 -0.5838413925 0.5000000000 0 255 0
-0.4506189799 0.1559968160 -0.5883454447 0.5000000000 0 255 0
-0.4431292273 0.1795615033 -0.5928494969 0.5000000000 0 255 0
-0.4746948287 0.0774479317 -0.5732237911 0.5000000000 0 255 0
-0.4743735105 0.0790188962 -0.5735456905 0.5000000000 0 255 0
-0.4740521922 0.0805898606 -0.5738675899 0.5000000000 0 255 0
-0.4737308740 0.0821608251 -0.5741894893 0.5000000000 0 255 0
-0.4734095557 0.0837317895 -0.5745113887 0.5000000000 0 255 0
-0.4663102098 -0.0317053730 -0.5471253560 0.5000000000 0 255 0
-0.4679871336 -0.0098747121 -0.5523450430 0.5000000000 0 255 0
-0.4696640574 0.0119559489 -0.5575647300 0.5000000000 0 255 0
-0.4713409811 0.0337866098 -0.5627844170 0.5000000000 0 255 0
-0.4730179049 0.0556172708 -0.5680041041 0.5000000000 0 255 0
-0.4635670551 -0.0611996519 -0.5400152685 0.5000000000 0 255 0
-0.4641156860 -0.0553007961 -0.5414372860 0.5000000000 0 255 0
-0.4646643170 -0.0494019403 -0.5428593035 0.5000000000 0 255 0
-0.4652129479 -0.0435030846 -0.5442813210 0.5000000000 0 255 0
-0.4657615789 -0.0376042288 -0.5457033385 0.5000000000 0 255 0
-0.4631925370 -0.0625426231 -0.5396611867 0.5000000000 0 255 0
-0.4632674406 -0.0622740289 -0.5397320031 0.5000000000 0 255 0
-0.4633423442 -0.0620054346 -0.5398028194 0.5000000000 0 255 0
-0.4634172479 -0.0617368404 -0.5398736358 0.5000000000 0 255 0
-0.4634921515 -0.0614682461 -0.5399444521 0.5000000000 0 255 0
-0.4620459219 -0.0647458906 -0.5390156054 0.5000000000 0 255 0
-0.4622752449 -0.0643052371 -0.5391447216 0.5000000000 0 255 0
-0.4625045679 -0.0638645836 -0.5392738379 0.5000000000 0 255 0
-0.4627338910 -0.0634239301 -0.5394029542 0.5000000000 0 255 0
-0.4629632140 -0.0629832766 -0.5395320704 0.5000000000 0 255 0
-0.3941282068 -0.1711501976 -0.5063135735 0.5000000000 0 255 0
-0.4077117498 -0.1498693362 -0.5128539799 0.5000000000 0 255 0
-0.4212952928 -0.1285884748 -0.5193943863 0.5000000000 0 255 0
-0.4348788359 -0.1073076134 -0.5259347926 0.5000000000 0 255 0
-0.4484623789 -0.0860267520 -0.5324751990 0.5000000000 0 255 0
-0.3301534169 -0.2287028782 -0.4853150497 0.5000000000 0 255 0
-0.3429483749 -0.2171923421 -0.4895147545 0.5000000000 0 255 0
-0.3557433329 -0.2056818060 -0.4937144592 0.5000000000 0 255 0
-0.3685382908 -0.1941712698 -0.4979141640 0.5000000000 0 255 0
-0.3813332488 -0.1826607337 -0.5021138688 0.5000000000 0 255 0
-0.2843681735 -0.2729241777 -0.4695902128 0.5000000000 0 255 0
-0.2935252222 -0.2640799178 -0.4727351802 0.5000000000 0 255 0
-0.3026822709 -0.2552356579 -0.4758801476 0.5000000000 0 255 0
-0.3118393195 -0.2463913980 -0.4790251150 0.5000000000 0 255 0
-0.3209963682 -0.2375471381 -0.4821700823 0.5000000000 0 255 0
-0.2160826745 -0.3060925122 -0.4536704264 0.5000000000 0 255 0
-0.2297397743 -0.2994588453 -0.4568543837 0.5000000000 0 255 0
-0.2433968741 -0.2928251784 -0.4600383410 0.5000000000 0 255 0
-0.2570539739 -0.2861915115 -0.4632222982 0.5000000000 0 255 0
-0.2707110737 -0.2795578446 -0.4664062555 0.5000000000 0 255 0
-0.1478743690 -0.3450816465 -0.4364226149 0.5000000000 0 255 0
-0.1615160301 -0.3372838196 -0.4398721772 0.5000000000 0 255 0
-0.1751576912 -0.3294859928 -0.4433217395 0.5000000000 0 255 0
-0.1887993523 -0.3216881659 -0.4467713018 0.5000000000 0 255 0
-0.2024410134 -0.3138903391 -0.4502208641 0.5000000000 0 255 0
-0.0968239036 -0.3563535086 -0.4276284550 0.5000000000 0 255 0
-0.1070339967 -0.3540991362 -0.4293872870 0.5000000000 0 255 0
-0.1172440898 -0.3518447638 -0.4311461190 0.5000000000 0 255 0
-0.1274541828 -0.3495903913 -0.4329049510 0.5000000000 0 255 0
-0.1376642759 -0.3473360189 -0.4346637829 0.5000000000 0 255 0
-0.0285061766 -0.3783702714 -0.4142669744 0.5000000000 0 255 0
-0.0421697220 -0.3739669188 -0.4169392705 0.5000000000 0 255 0
-0.0558332674 -0.3695635663 -0.4196115666 0.5000000000 0 255 0
-0.0694968128 -0.3651602137 -0.4222838628 0.5000000000 0 255 0
-0.0831603582 -0.3607568612 -0.4249561589 0.5000000000 0 255 0
0.0249522244 -0.3790721930 -0.4076087567 0.5000000000 0 255 0
0.0142605442 -0.3789318087 -0.4089404003 0.5000000000 0 255 0
0.0035688640 -0.3787914244 -0.4102720438 0.5000000000 0 255 0
-0.0071228162 -0.3786510400 -0.4116036873 0.5000000000 0 255 0
-0.0178144964 -0.3785106557 -0.4129353309 0.5000000000 0 255 0
0.1269381016 -0.3866198930 -0.3934799567 0.5000000000 0 255 0
0.1065409262 -0.3851103530 -0.3963057167 0.5000000000 0 255 0
0.0861437507 -0.3836008130 -0.3991314767 0.5000000000 0 255 0
0.0657465753 -0.3820912730 -0.4019572367 0.5000000000 0 255 0
0.0453493998 -0.3805817330 -0.4047829967 0.5000000000 0 255 0
0.1544838235 -0.3831119998 -0.3909382371 0.5000000000 0 255 0
0.1489746791 -0.3838135784 -0.3914465810 0.5000000000 0 255 0
0.1434655347 -0.3845151571 -0.3919549249 0.5000000000 0 255 0
0.1379563904 -0.3852167357 -0.3924632688 0.5000000000 0 255 0
0.1324472460 -0.3859183144 -0.3929716127 0.5000000000 0 255 0
0.1746756043 -0.3810918954 -0.3889484222 0.5000000000 0 255 0
0.1706372481 -0.3814959163 -0.3893463852 0.5000000000 0 255 0
0.1665988920 -0.3818999372 -0.3897443481 0.5000000000 0 255 0
0.1625605358 -0.3823039580 -0.3901423111 0.5000000000 0 255 0
0.1585221797 -0.3827079789 -0.3905402741 0.5000000000 0 255 0
0.2772165232 -0.3714351844 -0.3787051097 0.5000000000 0 255 0
0.2567083394 -0.3733665266 -0.3807537722 0.5000000000 0 255 0
0.2362001556 -0.3752978688 -0.3828024347 0.5000000000 0 255 0
0.2156919719 -0.3772292110 -0.3848510972 0.5000000000 0 255 0
0.1951837881 -0.3791605532 -0.3868997597 0.5000000000 0 255 0
0.3245794267 -0.3619310507 -0.3751326716 0.5000000000 0 255 0
0.3151068460 -0.3638318774 -0.3758471592 0.5000000000 0 255 0
0.3056342653 -0.3657327042 -0.3765616469 0.5000000000 0 255 0
0.2961616846 -0.3676335309 -0.3772761345 0.5000000000 0 255 0
0.2866891039 -0.3695343577 -0.3779906221 0.5000000000 0 255 0
0.3980221589 -0.3484355072 -0.3693077623 0.5000000000 0 255 0
0.3833336125 -0.3511346159 -0.3704727442 0.5000000000 0 255 0
0.3686450660 -0.3538337246 -0.3716377260 0.5000000000 0 255 0
0.3539565196 -0.3565328333 -0.3728027079 0.5000000000 0 255 0
0.3392679731 -0.3592319420 -0.3739676898 0.5000000000 0 255 0
0.4463147971 -0.3273745948 -0.3682776554 0.5000000000 0 255 0
0.4366562695 -0.3315867773 -0.3684836768 0.5000000000 0 255 0
0.4269977418 -0.3357989598 -0.3686896982 0.5000000000 0 255 0
0.4173392142 -0.3400111422 -0.3688957195 0.5000000000 0 255 0
0.4076806865 -0.3442233247 -0.3691017409 0.5000000000 0 255 0
0.5071795263 -0.3131659832 -0.3641452212 0.5000000000 0 255 0
0.4950065805 -0.3160077055 -0.3649717080 0.5000000000 0 255 0
0.4828336346 -0.3188494278 -0.3657981949 0.5000000000 0 255 0
0.4706606888 -0.3216911502 -0.3666246817 0.5000000000 0 255 0
0.4584877429 -0.3245328725 -0.3674511686 0.5000000000 0 255 0
0.5348972697 -0.2997053883 -0.3638693615 0.5000000000 0 255 0
0.5293537210 -0.3023975073 -0.3639245335 0.5000000000 0 255 0
0.5238101723 -0.3050896263 -0.3639797054 0.5000000000 0 255 0
0.5182666237 -0.3077817452 -0.3640348773 0.5000000000 0 255 0
0.5127230750 -0.3104738642 -0.3640900493 0.5000000000 0 255 0
0.5639708696 -0.2880740693 -0.3630084205 0.5000000000 0 255 0
0.5581561496 -0.2904003331 -0.3631806087 0.5000000000 0 255 0
0.5523414296 -0.2927265969 -0.3633527969 0.5000000000 0 255 0
0.5465267097 -0.2950528607 -0.3635249851 0.5000000000 0 255 0
0.5407119897 -0.2973791245 -0.3636971733 0.5000000000 0 255 0
0.5599211970 -0.2835891337 -0.3867393291 1.0000000000 0 0 255
0.5688219505 -0.2817963478 -0.3853569339 1.0000000000 0 0 255
0.5731353544 -0.2897770206 -0.3839244808 1.0000000000 0 0 255
0.5669004310 -0.2965021334 -0.3844215714 1.0000000000 0 0 255
0.5587336326 -0.2926778090 -0.3861612433 1.0000000000 0 0 255
0.5386288376 -0.2670305583 -0.3918426294 1.0000000000 0 0 255
0.5475295911 -0.2652377724 -0.3904602341 1.0000000000 0 0 255
0.5518429950 -0.2732184452 -0.3890277811 1.0000000000 0 0 255
0.5456080716 -0.2799435580 -0.3895248717 0.0000000000 255 0 0
0.5374412732 -0.2761192336 -0.3912645436 0.0000000000 255 0 0
0.4384630649 -0.1751614306 -0.4170540794 0.0000000000 255 0 0
0.4473638184 -0.1733686447 -0.4156716842 1.0000000000 0 0 255
0.4516772223 -0.1813493175 -0.4142392311 1.0000000000 0 0 255
0.4454422989 -0.1880744303 -0.4147363217 0.0000000000 255 0 0
0.4372755005 -0.1842501059 -0.4164759936 0.0000000000 255 0 0
0.4125364578 -0.1505939201 -0.4236476674 0.0000000000 255 0 0
0.4214372113 -0.1488011342 -0.4222652722 1.0000000000 0 0 255
0.4257506152 -0.1567818070 -0.4208328191 1.0000000000 0 0 255
0.4195156918 -0.1635069198 -0.4213299097 0.0000000000 255 0 0
0.4113488934 -0.1596825954 -0.4230695816 0.0000000000 255 0 0
0.3373190944 -0.0664516435 -0.4438855345 0.0000000000 255 0 0
0.3462198479 -0.0646588576 -0.4425031392 1.0000000000 0 0 255
0.3505332518 -0.0726395304 -0.4410706861 1.0000000000 0 0 255
0.3442983284 -0.0793646432 -0.4415677767 0.0000000000 255 0 0
0.3361315300 -0.0755403188 -0.4433074487 0.0000000000 255 0 0
0.3235985342 -0.0482823389 -0.4478202199 0.0000000000 255 0 0
0.3324992877 -0.0464895530 -0.4464378246 1.0000000000 0 0 255
0.3368126916 -0.0544702258 -0.4450053715 1.0000000000 0 0 255
0.3305777682 -0.0611953386 -0.4455024621 0.0000000000 255 0 0
0.3224109698 -0.0573710142 -0.4472421341 0.0000000000 255 0 0
0.2924959534 0.0015154749 -0.4574815404 0.0000000000 255 0 0
0.3013967069 0.0033082608 -0.4560991451 1.0000000000 0 0 255
0.3057101108 -0.0046724120 -0.4546666920 1.0000000000 0 0 255
0.2994751874 -0.0113975248 -0.4551637826 0.0000000000 255 0 0
0.2913083890 -0.0075732004 -0.4569034546 0.0000000000 255 0 0
0.2290440870 0.0983822779 -0.4767843137 0.0000000000 255 0 0
0.2379448405 0.1001750638 -0.4754019184 1.0000000000 0 0 255
0.2422582444 0.0921943910 -0.4739694654 1.0000000000 0 0 255
0.2360233210 0.0854692782 -0.4744665560 0.0000000000 255 0 0
0.2278565226 0.0892936026 -0.4762062279 0.0000000000 255 0 0
0.1522805619 0.2179561708 -0.5003421737 0.0000000000 255 0 0
0.1611813154 0.2197489567 -0.4989597784 1.0000000000 0 0 255
0.1654947193 0.2117682839 -0.4975273254 1.0000000000 0 0 255
0.1592597959 0.2050431711 -0.4980244160 0.0000000000 255 0 0
0.1510929975 0.2088674955 -0.4997640879 0.0000000000 255 0 0
0.0769756098 0.3012351146 -0.5205207741 0.0000000000 255 0 0
0.0858763633 0.3030279005 -0.5191383788 1.0000000000 0 0 255
0.0901897672 0.2950472277 -0.5177059257 1.0000000000 0 0 255
0.0839548438 0.2883221149 -0.5182030163 0.0000000000 255 0 0
0.0757880454 0.2921464393 -0.5199426883 0.0000000000 255 0 0
0.0170019890 0.3723188637 -0.5370013292 1.0000000000 0 0 255
0.0259027425 0.3741116496 -0.5356189340 1.0000000000 0 0 255
0.0302161464 0.3661309768 -0.5341864809 1.0000000000 0 0 255
0.0239812230 0.3594058640 -0.5346835715 0.0000000000 255 0 0
0.0158144246 0.3632301884 -0.5364232434 0.0000000000 255 0 0
-0.0567691721 0.4334351543 -0.5550054136 1.0000000000 0 0 255
-0.0478684186 0.4352279402 -0.5536230183 1.0000000000 0 0 255
-0.0435550147 0.4272472674 -0.5521905653 1.0000000000 0 0 255
-0.0497899381 0.4205221546 -0.5526876559 0.0000000000 255 0 0
-0.0579567365 0.4243464790 -0.5544273278 0.0000000000 255 0 0
-0.0706879898 0.4396211916 -0.5579417747 1.0000000000 0 0 255
-0.0617872363 0.4414139775 -0.5565593795 1.0000000000 0 0 255
-0.0574738324 0.4334333047 -0.5551269264 1.0000000000 0 0 255
-0.0637087558 0.4267081919 -0.5556240170 0.0000000000 255 0 0
-0.0718755542 0.4305325163 -0.5573636889 0.0000000000 255 0 0
-0.0827339984 0.4434687880 -0.5603532666 1.0000000000 0 0 255
-0.0738332449 0.4452615739 -0.5589708713 1.0000000000 0 0 255
-0.0695198410 0.4372809011 -0.5575384183 1.0000000000 0 0 255
-0.0757547644 0.4305557883 -0.5580355089 0.0000000000 255 0 0
-0.0839215628 0.4343801127 -0.5597751808 0.0000000000 255 0 0
-0.1286473550 0.4552104018 -0.5692927591 1.0000000000 0 0 255
-0.1197466015 0.4570031877 -0.5679103638 1.0000000000 0 0 255
-0.1154331976 0.4490225149 -0.5664779108 1.0000000000 0 0 255
-0.1216681210 0.4422974021 -0.5669750013 0.0000000000 255 0 0
-0.1298349194 0.4461217265 -0.5687146733 0.0000000000 255 0 0
-0.2010329089 0.4685947604 -0.5829446971 1.0000000000 0 0 255
-0.1921321554 0.4703875463 -0.5815623019 1.0000000000 0 0 255
-0.1878187515 0.4624068735 -0.5801298488 1.0000000000 0 0 255
-0.1940536749 0.4556817607 -0.5806269394 0.0000000000 255 0 0
-0.2022204733 0.4595060851 -0.5823666113 0.0000000000 255 0 0
-0.2090958227 0.4707221934 -0.5845202163 1.0000000000 0 0 255
-0.2001950692 0.4725149793 -0.5831378210 1.0000000000 0 0 255
-0.1958816653 0.4645343065 -0.5817053679 1.0000000000 0 0 255
-0.2021165887 0.4578091937 -0.5822024585 0.0000000000 255 0 0
-0.2102833871 0.4616335181 -0.5839421305 0.0000000000 255 0 0
-0.2169604950 0.4690853929 -0.5857371544 1.0000000000 0 0 255
-0.2080597415 0.4708781788 -0.5843547591 1.0000000000 0 0 255
-0.2037463376 0.4628975060 -0.5829223061 0.0000000000 255 0 0
-0.2099812610 0.4561723932 -0.5834193967 0.0000000000 255 0 0
-0.2181480594 0.4599967176 -0.5851590686 0.0000000000 255 0 0
-0.2974186028 0.4239808753 -0.5957431770 1.0000000000 0 0 255
-0.2885178493 0.4257736612 -0.5943607817 1.0000000000 0 0 255
-0.2842044454 0.4177929884 -0.5929283287 0.0000000000 255 0 0
-0.2904393688 0.4110678756 -0.5934254193 0.0000000000 255 0 0
-0.2986061672 0.4148922000 -0.5951650912 1.0000000000 0 0 255
-0.3121350477 0.4078084446 -0.5968907103 1.0000000000 0 0 255
-0.3032342942 0.4096012305 -0.5955083150 1.0000000000 0 0 255
-0.2989208903 0.4016205577 -0.5940758619 0.0000000000 255 0 0
-0.3051558137 0.3948954449 -0.5945729525 0.0000000000 255 0 0
-0.3133226121 0.3987197693 -0.5963126245 1.0000000000 0 0 255
-0.3335776838 0.3844120990 -0.5985771802 1.0000000000 0 0 255
-0.3246769303 0.3862048849 -0.5971947850 1.0000000000 0 0 255
-0.3203635264 0.3782242121 -0.5957623319 0.0000000000 255 0 0
-0.3265984498 0.3714990993 -0.5962594225 0.0000000000 255 0 0
-0.3347652482 0.3753234237 -0.5979990944 1.0000000000 0 0 255
-0.3865810329 0.3130020910 -0.6015759965 1.0000000000 0 0 255
-0.3776802794 0.3147948769 -0.6001936012 1.0000000000 0 0 255
-0.3733668755 0.3068142041 -0.5987611482 0.0000000000 255 0 0
-0.3796017989 0.3000890913 -0.5992582388 0.0000000000 255 0 0
-0.3877685973 0.3039134157 -0.6009979107 1.0000000000 0 0 255
-0.4247050840 0.2375291135 -0.6016555451 1.0000000000 0 0 255
-0.4158043305 0.2393218994 -0.6002731498 1.0000000000 0 0 255
-0.4114909266 0.2313412266 -0.5988406968 0.0000000000 255 0 0
-0.4177258500 0.2246161138 -0.5993377874 0.0000000000 255 0 0
-0.4258926484 0.2284404382 -0.6010774593 1.0000000000 0 0 255
-0.4385197984 0.2048886021 -0.6012283806 1.0000000000 0 0 255
-0.4296190449 0.2066813880 -0.5998459854 0.0000000000 255 0 0
-0.4253056410 0.1987007152 -0.5984135323 0.0000000000 255 0 0
-0.4315405644 0.1919756024 -0.5989106229 0.0000000000 255 0 0
-0.4397073628 0.1957999268 -0.6006502948 1.0000000000 0 0 255
-0.4524970558 0.1156798647 -0.5959549924 1.0000000000 0 0 255
-0.4435963023 0.1174726506 -0.5945725972 0.0000000000 255 0 0
-0.4392828984 0.1094919778 -0.5931401441 0.0000000000 255 0 0
-0.4455178218 0.1027668650 -0.5936372347 0.0000000000 255 0 0
-0.4536846202 0.1065911894 -0.5953769066 1.0000000000 0 0 255
-0.4536891376 0.0704932623 -0.5922672523 1.0000000000 0 0 255
-0.4447883841 0.0722860482 -0.5908848570 0.0000000000 255 0 0
-0.4404749802 0.0643053754 -0.5894524039 0.0000000000 255 0 0
-0.4467099036 0.0575802626 -0.5899494945 1.0000000000 0 0 255
-0.4548767020 0.0614045870 -0.5916891665 1.0000000000 0 0 255
-0.4341342524 -0.0183023218 -0.5812395430 1.0000000000 0 0 255
-0.4252334989 -0.0165095359 -0.5798571477 0.0000000000 255 0 0
-0.4209200950 -0.0244902087 -0.5784246947 0.0000000000 255 0 0
-0.4271550184 -0.0312153215 -0.5789217853 1.0000000000 0 0 255
-0.4353218168 -0.0273909971 -0.5806614572 1.0000000000 0 0 255
-0.4045700913 -0.0898491429 -0.5699698208 1.0000000000 0 0 255
-0.3956693378 -0.0880563570 -0.5685874255 0.0000000000 255 0 0
-0.3913559339 -0.0960370298 -0.5671549725 0.0000000000 255 0 0
-0.3975908573 -0.1027621426 -0.5676520631 1.0000000000 0 0 255
-0.4057576557 -0.0989378182 -0.5693917350 1.0000000000 0 0 255
-0.3662717002 -0.1414166447 -0.5589135277 1.0000000000 0 0 255
-0.3573709467 -0.1396238588 -0.5575311324 0.0000000000 255 0 0
-0.3530575428 -0.1476045316 -0.5560986793 0.0000000000 255 0 0
-0.3592924662 -0.1543296444 -0.5565957699 1.0000000000 0 0 255
-0.3674592646 -0.1505053200 -0.5583354419 1.0000000000 0 0 255
-0.3388696559 -0.1640380629 -0.5522328673 0.0000000000 255 0 0
-0.3299689024 -0.1622452770 -0.5508504720 0.0000000000 255 0 0
-0.3256554985 -0.1702259498 -0.5494180189 0.0000000000 255 0 0
-0.3318904219 -0.1769510626 -0.5499151095 1.0000000000 0 0 255
-0.3400572203 -0.1731267382 -0.5516547815 1.0000000000 0 0 255
-0.2404704849 -0.2509246929 -0.5277557772 0.0000000000 255 0 0
-0.2315697314 -0.2491319070 -0.5263733819 0.0000000000 255 0 0
-0.2272563275 -0.2571125798 -0.5249409288 0.0000000000 255 0 0
-0.2334912509 -0.2638376926 -0.5254380194 1.0000000000 0 0 255
-0.2416580493 -0.2600133682 -0.5271776914 1.0000000000 0 0 255
-0.2262676451 -0.2576570985 -0.5247232959 0.0000000000 255 0 0
-0.2173668916 -0.2558643126 -0.5233409006 0.0000000000 255 0 0
-0.2130534877 -0.2638449854 -0.5219084476 0.0000000000 255 0 0
-0.2192884111 -0.2705700982 -0.5224055382 1.0000000000 0 0 255
-0.2274552095 -0.2667457738 -0.5241452101 1.0000000000 0 0 255
-0.1084697914 -0.3227189491 -0.4987772444 0.0000000000 255 0 0
-0.0995690379 -0.3209261632 -0.4973948491 0.0000000000 255 0 0
-0.0952556340 -0.3289068360 -0.4959623960 0.0000000000 255 0 0
-0.1014905574 -0.3356319488 -0.4964594866 1.0000000000 0 0 255
-0.1096573558 -0.3318076244 -0.4981991585 1.0000000000 0 0 255
-0.1072908297 -0.3229885878 -0.4985504418 0.0000000000 255 0 0
-0.0983900762 -0.3211958019 -0.4971680465 0.0000000000 255 0 0
-0.0940766723 -0.3291764747 -0.4957355935 0.0000000000 255 0 0
-0.1003115957 -0.3359015875 -0.4962326840 1.0000000000 0 0 255
-0.1084783941 -0.3320772631 -0.4979723560 1.0000000000 0 0 255
0.0016805329 -0.3583186092 -0.4766903305 0.0000000000 255 0 0
0.0105812864 -0.3565258233 -0.4753079353 0.0000000000 255 0 0
0.0148946903 -0.3645064961 -0.4738754822 1.0000000000 0 0 255
0.0086597669 -0.3712316089 -0.4743725728 1.0000000000 0 0 255
0.0004929685 -0.3674072845 -0.4761122447 1.0000000000 0 0 255
0.0066997437 -0.3584432491 -0.4758129347 0.0000000000 255 0 0
0.0156004972 -0.3566504632 -0.4744305394 0.0000000000 255 0 0
0.0199139011 -0.3646311360 -0.4729980864 1.0000000000 0 0 255
0.0136789777 -0.3713562488 -0.4734951769 1.0000000000 0 0 255
0.0055121793 -0.3675319244 -0.4752348489 1.0000000000 0 0 255
0.0301109794 -0.3603901122 -0.4716028138 0.0000000000 255 0 0
0.0390117329 -0.3585973263 -0.4702204185 0.0000000000 255 0 0
0.0433251368 -0.3665779991 -0.4687879654 1.0000000000 0 0 255
0.0370902134 -0.3733031119 -0.4692850560 1.0000000000 0 0 255
0.0289234150 -0.3694787875 -0.4710247280 1.0000000000 0 0 255
0.1341542531 -0.3646124283 -0.4532740688 0.0000000000 255 0 0
0.1430550066 -0.3628196424 -0.4518916736 0.0000000000 255 0 0
0.1473684105 -0.3708003152 -0.4504592205 1.0000000000 0 0 255
0.1411334871 -0.3775254280 -0.4509563111 1.0000000000 0 0 255
0.1329666887 -0.3737011036 -0.4526959830 1.0000000000 0 0 255
0.1933102001 -0.3690845964 -0.4426743907 0.0000000000 255 0 0
0.2022109536 -0.3672918105 -0.4412919954 0.0000000000 255 0 0
0.2065243575 -0.3752724833 -0.4398595423 1.0000000000 0 0 255
0.2002894341 -0.3819975961 -0.4403566329 1.0000000000 0 0 255
0.1921226357 -0.3781732717 -0.4420963049 1.0000000000 0 0 255
0.2671123302 -0.3625248706 -0.4304963688 0.0000000000 255 0 0
0.2760130837 -0.3607320847 -0.4291139735 0.0000000000 255 0 0
0.2803264876 -0.3687127575 -0.4276815204 1.0000000000 0 0 255
0.2740915642 -0.3754378703 -0.4281786110 1.0000000000 0 0 255
0.2659247658 -0.3716135459 -0.4299182830 1.0000000000 0 0 255
0.2892377832 -0.3582467709 -0.4270446448 0.0000000000 255 0 0
0.2981385367 -0.3564539850 -0.4256622495 0.0000000000 255 0 0
0.3024519406 -0.3644346578 -0.4242297964 1.0000000000 0 0 255
0.2962170172 -0.3711597706 -0.4247268870 1.0000000000 0 0 255
0.2880502188 -0.3673354462 -0.4264665590 1.0000000000 0 0 255
0.3965723462 -0.3391977009 -0.4101528156 0.0000000000 255 0 0
0.4054730997 -0.3374049150 -0.4087704203 0.0000000000 255 0 0
0.4097865036 -0.3453855878 -0.4073379672 1.0000000000 0 0 255
0.4035515802 -0.3521107006 -0.4078350578 1.0000000000 0 0 255
0.3953847818 -0.3482863762 -0.4095747298 1.0000000000 0 0 255
0.4300040229 -0.3248263585 -0.4056185709 0.0000000000 255 0 0
0.4389047764 -0.3230335726 -0.4042361756 0.0000000000 255 0 0
0.4432181803 -0.3310142454 -0.4028037226 1.0000000000 0 0 255
0.4369832569 -0.3377393582 -0.4033008132 1.0000000000 0 0 255
0.4288164585 -0.3339150338 -0.4050404851 1.0000000000 0 0 255
0.5066432155 -0.3068935565 -0.3939306586 0.0000000000 255 0 0
0.5155439690 -0.3051007706 -0.3925482633 0.0000000000 255 0 0
0.5198573729 -0.3130814434 -0.3911158103 1.0000000000 0 0 255
0.5136224495 -0.3198065562 -0.3916129008 1.0000000000 0 0 255
0.5054556511 -0.3159822318 -0.3933525728 1.0000000000 0 0 255
0.5258057274 -0.2974694191 -0.3914339555 0.0000000000 255 0 0
0.5347064809 -0.2956766332 -0.3900515602 0.0000000000 255 0 0
0.5390198848 -0.3036573060 -0.3886191072 1.0000000000 0 0 255
0.5327849614 -0.3103824188 -0.3891161977 1.0000000000 0 0 255
0.5246181630 -0.3065580944 -0.3908558697 1.0000000000 0 0 255
0.5394602209 -0.2785059886 -0.3907102779 0.0000000000 255 0 0
0.5437186928 -0.2818177037 -0.3896896178 0.0000000000 255 0 0
0.5479771647 -0.2851294188 -0.3886689578 0.0000000000 255 0 0
0.5522356366 -0.2884411338 -0.3876482977 0.0000000000 255 0 0
0.5564941084 -0.2917528489 -0.3866276377 0.0000000000 255 0 0
0.5489600865 -0.2661138384 -0.3901377461 1.0000000000 0 0 255
0.5532185584 -0.2694255535 -0.3891170860 1.0000000000 0 0 255
0.5574770302 -0.2727372686 -0.3880964260 1.0000000000 0 0 255
0.5617355021 -0.2760489836 -0.3870757659 1.0000000000 0 0 255
0.5659939740 -0.2793606987 -0.3860551059 1.0000000000 0 0 255
0.4388257779 -0.1862408102 -0.4160367785 0.0000000000 255 0 0
0.4588589324 -0.2046146357 -0.4109944885 0.0000000000 255 0 0
0.4788920870 -0.2229884613 -0.4059521985 0.0000000000 255 0 0
0.4989252415 -0.2413622868 -0.4009099085 0.0000000000 255 0 0
0.5189583961 -0.2597361124 -0.3958676185 0.0000000000 255 0 0
0.4492629841 -0.1746407614 -0.4152341455 1.0000000000 0 0 255
0.4692961386 -0.1930145869 -0.4101918555 1.0000000000 0 0 255
0.4893292932 -0.2113884125 -0.4051495655 1.0000000000 0 0 255
0.5093624477 -0.2297622380 -0.4001072755 1.0000000000 0 0 255
0.5293956023 -0.2481360636 -0.3950649855 1.0000000000 0 0 255
0.4128091600 -0.1615893862 -0.4226531390 0.0000000000 255 0 0
0.4179944815 -0.1665028883 -0.4213344214 0.0000000000 255 0 0
0.4231798029 -0.1714163904 -0.4200157038 0.0000000000 255 0 0
0.4283651243 -0.1763298925 -0.4186969862 0.0000000000 255 0 0
0.4335504457 -0.1812433946 -0.4173782686 0.0000000000 255 0 0
0.4234263878 -0.1501571644 -0.4218049610 1.0000000000 0 0 255
0.4286117092 -0.1550706665 -0.4204862434 1.0000000000 0 0 255
0.4337970306 -0.1599841686 -0.4191675258 1.0000000000 0 0 255
0.4389823520 -0.1648976707 -0.4178488082 1.0000000000 0 0 255
0.4441676734 -0.1698111728 -0.4165300906 1.0000000000 0 0 255
0.3371545139 -0.0769969241 -0.4430053016 0.0000000000 255 0 0
0.3521979866 -0.0938253794 -0.4389577282 0.0000000000 255 0 0
0.3672414592 -0.1106538347 -0.4349101548 0.0000000000 255 0 0
0.3822849319 -0.1274822900 -0.4308625814 0.0000000000 255 0 0
0.3973284046 -0.1443107454 -0.4268150080 0.0000000000 255 0 0
0.3486463071 -0.0664650733 -0.4419285324 1.0000000000 0 0 255
0.3636897798 -0.0832935286 -0.4378809590 1.0000000000 0 0 255
0.3787332525 -0.1001219840 -0.4338333856 1.0000000000 0 0 255
0.3937767252 -0.1169504393 -0.4297858122 1.0000000000 0 0 255
0.4088201978 -0.1337788946 -0.4257382388 1.0000000000 0 0 255
0.3230350916 -0.0583424701 -0.4470506613 0.0000000000 255 0 0
0.3257792036 -0.0619763310 -0.4462637242 0.0000000000 255 0 0
0.3285233156 -0.0656101919 -0.4454767872 0.0000000000 255 0 0
0.3312674277 -0.0692440528 -0.4446898501 0.0000000000 255 0 0
0.3340115397 -0.0728779137 -0.4439029130 0.0000000000 255 0 0
0.3353246090 -0.0487809181 -0.4457525435 1.0000000000 0 0 255
0.3380687211 -0.0524147791 -0.4449656065 1.0000000000 0 0 255
0.3408128331 -0.0560486400 -0.4441786694 1.0000000000 0 0 255
0.3435569452 -0.0596825009 -0.4433917323 1.0000000000 0 0 255
0.3463010572 -0.0633163618 -0.4426047952 1.0000000000 0 0 255
0.2915500723 -0.0079886500 -0.4568259258 0.0000000000 255 0 0
0.2977705884 -0.0179482128 -0.4548936617 0.0000000000 255 0 0
0.3039911046 -0.0279077755 -0.4529613976 0.0000000000 255 0 0
0.3102116207 -0.0378673383 -0.4510291335 0.0000000000 255 0 0
0.3164321369 -0.0478269010 -0.4490968694 0.0000000000 255 0 0
0.3046044668 0.0004608894 -0.4552999201 1.0000000000 0 0 255
0.3108249829 -0.0094986734 -0.4533676560 1.0000000000 0 0 255
0.3170454991 -0.0194582361 -0.4514353919 1.0000000000 0 0 255
0.3232660152 -0.0294177989 -0.4495031278 1.0000000000 0 0 255
0.3294865314 -0.0393773616 -0.4475708637 1.0000000000 0 0 255
0.2281872009 0.0887390334 -0.4761013451 0.0000000000 255 0 0
0.2408775742 0.0693656728 -0.4722407904 0.0000000000 255 0 0
0.2535679475 0.0499923122 -0.4683802358 0.0000000000 255 0 0
0.2662583208 0.0306189516 -0.4645196811 0.0000000000 255 0 0
0.2789486941 0.0112455910 -0.4606591264 0.0000000000 255 0 0
0.2410636053 0.0974668120 -0.4746300475 1.0000000000 0 0 255
0.2537539785 0.0780934514 -0.4707694928 1.0000000000 0 0 255
0.2664443518 0.0587200908 -0.4669089381 1.0000000000 0 0 255
0.2791347251 0.0393467302 -0.4630483835 1.0000000000 0 0 255
0.2918250984 0.0199733696 -0.4591878288 1.0000000000 0 0 255
0.1513854503 0.2083718719 -0.4996708846 0.0000000000 255 0 0
0.1667381553 0.1844570933 -0.4949593126 0.0000000000 255 0 0
0.1820908603 0.1605423147 -0.4902477406 0.0000000000 255 0 0
0.1974435653 0.1366275361 -0.4855361686 0.0000000000 255 0 0
0.2127962703 0.1127127576 -0.4808245966 0.0000000000 255 0 0
0.1643383057 0.2169817593 -0.4981762280 1.0000000000 0 0 255
0.1796910108 0.1930669807 -0.4934646560 1.0000000000 0 0 255
0.1950437158 0.1691522022 -0.4887530840 1.0000000000 0 0 255
0.2103964208 0.1452374236 -0.4840415120 1.0000000000 0 0 255
0.2257491258 0.1213226450 -0.4793299400 1.0000000000 0 0 255
0.0768399742 0.2906576399 -0.5196327693 0.0000000000 255 0 0
0.0919009646 0.2740018512 -0.5155970492 0.0000000000 255 0 0
0.1069619551 0.2573460624 -0.5115613292 0.0000000000 255 0 0
0.1220229455 0.2406902736 -0.5075256091 0.0000000000 255 0 0
0.1370839359 0.2240344849 -0.5034898890 0.0000000000 255 0 0
0.0882738776 0.3012538789 -0.5185715440 1.0000000000 0 0 255
0.1033348680 0.2845980901 -0.5145358239 1.0000000000 0 0 255
0.1183958584 0.2679423013 -0.5105001038 1.0000000000 0 0 255
0.1334568488 0.2512865126 -0.5064643837 1.0000000000 0 0 255
0.1485178393 0.2346307238 -0.5024286637 1.0000000000 0 0 255
0.0166949171 0.3619376491 -0.5361598371 0.0000000000 255 0 0
0.0286896413 0.3477208993 -0.5328637260 0.0000000000 255 0 0
0.0406843654 0.3335041495 -0.5295676150 0.0000000000 255 0 0
0.0526790896 0.3192873996 -0.5262715040 0.0000000000 255 0 0
0.0646738137 0.3050706498 -0.5229753929 0.0000000000 255 0 0
0.0284716931 0.3721413679 -0.5350055866 1.0000000000 0 0 255
0.0404664173 0.3579246181 -0.5317094755 1.0000000000 0 0 255
0.0524611414 0.3437078683 -0.5284133645 1.0000000000 0 0 255
0.0644558656 0.3294911184 -0.5251172534 1.0000000000 0 0 255
0.0764505897 0.3152743686 -0.5218211424 1.0000000000 0 0 255
-0.0561195619 0.4221056433 -0.5539170218 0.0000000000 255 0 0
-0.0413653296 0.4098823852 -0.5503162049 0.0000000000 255 0 0
-0.0266110974 0.3976591271 -0.5467153881 0.0000000000 255 0 0
-0.0118568652 0.3854358690 -0.5431145712 0.0000000000 255 0 0
0.0028973670 0.3732126109 -0.5395137543 0.0000000000 255 0 0
-0.0462561501 0.4342059549 -0.5532565706 1.0000000000 0 0 255
-0.0315019179 0.4219826967 -0.5496557537 1.0000000000 0 0 255
-0.0167476857 0.4097594386 -0.5460549368 1.0000000000 0 0 255
-0.0019934535 0.3975361805 -0.5424541199 1.0000000000 0 0 255
0.0127607787 0.3853129224 -0.5388533031 1.0000000000 0 0 255
-0.0682909029 0.4272079994 -0.5564582729 0.0000000000 255 0 0
-0.0655071394 0.4259707919 -0.5558710007 0.0000000000 255 0 0
-0.0627233758 0.4247335845 -0.5552837285 0.0000000000 255 0 0
-0.0599396123 0.4234963770 -0.5546964562 0.0000000000 255 0 0
-0.0571558488 0.4222591695 -0.5541091840 0.0000000000 255 0 0
-0.0619224445 0.4414756734 -0.5565880417 1.0000000000 0 0 255
-0.0591386809 0.4402384660 -0.5560007695 1.0000000000 0 0 255
-0.0563549174 0.4390012585 -0.5554134972 1.0000000000 0 0 255
-0.0535711539 0.4377640510 -0.5548262250 1.0000000000 0 0 255
-0.0507873903 0.4365268436 -0.5542389528 1.0000000000 0 0 255
-0.0795691893 0.4307633915 -0.5587120257 0.0000000000 255 0 0
-0.0771599876 0.4299938723 -0.5582297273 0.0000000000 255 0 0
-0.0747507859 0.4292243530 -0.5577474289 0.0000000000 255 0 0
-0.0723415842 0.4284548337 -0.5572651305 0.0000000000 255 0 0
-0.0699323824 0.4276853144 -0.5567828322 0.0000000000 255 0 0
-0.0747361753 0.4456154741 -0.5591572727 1.0000000000 0 0 255
-0.0723269736 0.4448459548 -0.5586749743 1.0000000000 0 0 255
-0.0699177718 0.4440764355 -0.5581926760 1.0000000000 0 0 255
-0.0675085701 0.4433069162 -0.5577103776 1.0000000000 0 0 255
-0.0650993684 0.4425373969 -0.5572280792 1.0000000000 0 0 255
-0.1250561906 0.4423825150 -0.5675673457 0.0000000000 255 0 0
-0.1158735192 0.4400341923 -0.5657794472 0.0000000000 255 0 0
-0.1066908479 0.4376858695 -0.5639915487 0.0000000000 255 0 0
-0.0975081766 0.4353375467 -0.5622036502 0.0000000000 255 0 0
-0.0883255053 0.4329892240 -0.5604157517 0.0000000000 255 0 0
-0.1210758873 0.4574795782 -0.5681809376 1.0000000000 0 0 255
-0.1118932159 0.4551312554 -0.5663930391 1.0000000000 0 0 255
-0.1027105446 0.4527829327 -0.5646051406 1.0000000000 0 0 255
-0.0935278733 0.4504346099 -0.5628172421 1.0000000000 0 0 255
-0.0843452020 0.4480862871 -0.5610293436 1.0000000000 0 0 255
-0.1969434866 0.4556572342 -0.5811238034 0.0000000000 255 0 0
-0.1824663758 0.4529803625 -0.5783934158 0.0000000000 255 0 0
-0.1679892650 0.4503034908 -0.5756630282 0.0000000000 255 0 0
-0.1535121542 0.4476266190 -0.5729326406 0.0000000000 255 0 0
-0.1390350435 0.4449497473 -0.5702022530 0.0000000000 255 0 0
-0.1939596990 0.4709735762 -0.5819283560 1.0000000000 0 0 255
-0.1794825882 0.4682967045 -0.5791979684 1.0000000000 0 0 255
-0.1650054775 0.4656198328 -0.5764675808 1.0000000000 0 0 255
-0.1505283667 0.4629429610 -0.5737371932 1.0000000000 0 0 255
-0.1360512559 0.4602660893 -0.5710068056 1.0000000000 0 0 255
-0.2055602384 0.4579087458 -0.5828056440 0.0000000000 255 0 0
-0.2039476557 0.4574832592 -0.5824905402 0.0000000000 255 0 0
-0.2023350729 0.4570577726 -0.5821754363 0.0000000000 255 0 0
-0.2007224901 0.4566322860 -0.5818603325 0.0000000000 255 0 0
-0.1991099074 0.4562067994 -0.5815452287 0.0000000000 255 0 0
-0.2014687748 0.4729769306 -0.5833975537 1.0000000000 0 0 255
-0.1998561920 0.4725514440 -0.5830824499 1.0000000000 0 0 255
-0.1982436093 0.4721259574 -0.5827673460 1.0000000000 0 0 255
-0.1966310265 0.4717004708 -0.5824522422 1.0000000000 0 0 255
-0.1950184437 0.4712749842 -0.5821371384 1.0000000000 0 0 255
-0.2099328150 0.4561823134 -0.5834118864 0.0000000000 255 0 0
-0.2083598806 0.4565096735 -0.5831684988 0.0000000000 255 0 0
-0.2067869461 0.4568370336 -0.5829251111 0.0000000000 255 0 0
-0.2052140116 0.4571643937 -0.5826817235 0.0000000000 255 0 0
-0.2036410772 0.4574917538 -0.5824383359 0.0000000000 255 0 0
-0.2128255428 0.4714297620 -0.5852251876 1.0000000000 0 0 255
-0.2112526083 0.4717571221 -0.5849817999 1.0000000000 0 0 255
-0.2096796739 0.4720844822 -0.5847384123 1.0000000000 0 0 255
-0.2081067394 0.4724118423 -0.5844950247 1.0000000000 0 0 255
-0.2065338049 0.4727392024 -0.5842516371 1.0000000000 0 0 255
-0.2881793482 0.4119064288 -0.5931074417 0.0000000000 255 0 0
-0.2720877267 0.4209273323 -0.5911062372 0.0000000000 255 0 0
-0.2559961051 0.4299482358 -0.5891050327 0.0000000000 255 0 0
-0.2399044835 0.4389691393 -0.5871038282 0.0000000000 255 0 0
-0.2238128620 0.4479900428 -0.5851026237 0.0000000000 255 0 0
-0.2954952252 0.4254966115 -0.5955416774 1.0000000000 0 0 255
-0.2794036036 0.4345175150 -0.5935404729 1.0000000000 0 0 255
-0.2633119821 0.4435384185 -0.5915392684 1.0000000000 0 0 255
-0.2472203605 0.4525593220 -0.5895380639 1.0000000000 0 0 255
-0.2311287389 0.4615802255 -0.5875368593 1.0000000000 0 0 255
-0.3009225929 0.3973039774 -0.5940495466 0.0000000000 255 0 0
-0.2979793039 0.4005384635 -0.5938200400 0.0000000000 255 0 0
-0.2950360149 0.4037729497 -0.5935905333 0.0000000000 255 0 0
-0.2920927260 0.4070074358 -0.5933610266 0.0000000000 255 0 0
-0.2891494370 0.4102419220 -0.5931315200 0.0000000000 255 0 0
-0.3121848703 0.4077542014 -0.5968946391 1.0000000000 0 0 255
-0.3092415813 0.4109886875 -0.5966651324 1.0000000000 0 0 255
-0.3062982923 0.4142231737 -0.5964356258 1.0000000000 0 0 255
-0.3033550034 0.4174576598 -0.5962061191 1.0000000000 0 0 255
-0.3004117144 0.4206921460 -0.5959766125 1.0000000000 0 0 255
-0.3223842359 0.3738868189 -0.5957375051 0.0000000000 255 0 0
-0.3180957087 0.3785660880 -0.5954002111 0.0000000000 255 0 0
-0.3138071815 0.3832453572 -0.5950629171 0.0000000000 255 0 0
-0.3095186542 0.3879246263 -0.5947256231 0.0000000000 255 0 0
-0.3052301270 0.3926038954 -0.5943883291 0.0000000000 255 0 0
-0.3336084995 0.3843786687 -0.5985796205 1.0000000000 0 0 255
-0.3293199723 0.3890579378 -0.5982423265 1.0000000000 0 0 255
-0.3250314451 0.3937372069 -0.5979050326 1.0000000000 0 0 255
-0.3207429178 0.3984164760 -0.5975677386 1.0000000000 0 0 255
-0.3164543906 0.4030957451 -0.5972304446 1.0000000000 0 0 255
-0.3748658430 0.3031087577 -0.5987006860 0.0000000000 255 0 0
-0.3642651732 0.3173907593 -0.5981009227 0.0000000000 255 0 0
-0.3536645033 0.3316727609 -0.5975011595 0.0000000000 255 0 0
-0.3430638335 0.3459547625 -0.5969013962 0.0000000000 255 0 0
-0.3324631637 0.3602367641 -0.5963016330 0.0000000000 255 0 0
-0.3871335906 0.3123367139 -0.6016140722 1.0000000000 0 0 255
-0.3765329208 0.3266187155 -0.6010143089 1.0000000000 0 0 255
-0.3659322510 0.3409007171 -0.6004145457 1.0000000000 0 0 255
-0.3553315812 0.3551827187 -0.5998147824 1.0000000000 0 0 255
-0.3447309113 0.3694647203 -0.5992150191 1.0000000000 0 0 255
-0.4122773847 0.2287898495 -0.5987566493 0.0000000000 255 0 0
-0.4046525744 0.2438844450 -0.5987407396 0.0000000000 255 0 0
-0.3970277642 0.2589790405 -0.5987248299 0.0000000000 255 0 0
-0.3894029540 0.2740736360 -0.5987089202 0.0000000000 255 0 0
-0.3817781438 0.2891682315 -0.5986930105 0.0000000000 255 0 0
-0.4259701511 0.2357096671 -0.6017172060 1.0000000000 0 0 255
-0.4183453409 0.2508042626 -0.6017012963 1.0000000000 0 0 255
-0.4107205307 0.2658988581 -0.6016853866 1.0000000000 0 0 255
-0.4030957205 0.2809934536 -0.6016694769 1.0000000000 0 0 255
-0.3954709103 0.2960880491 -0.6016535671 1.0000000000 0 0 255
-0.4258667209 0.1966355400 -0.5983324637 0.0000000000 255 0 0
-0.4231037780 0.2031636423 -0.5984178966 0.0000000000 255 0 0
-0.4203408351 0.2096917445 -0.5985033295 0.0000000000 255 0 0
-0.4175778922 0.2162198468 -0.5985887623 0.0000000000 255 0 0
-0.4148149494 0.2227479491 -0.5986741952 0.0000000000 255 0 0
-0.4400102437 0.2025829538 -0.6012870628 1.0000000000 0 0 255
-0.4372473008 0.2091110561 -0.6013724956 1.0000000000 0 0 255
-0.4344843580 0.2156391584 -0.6014579285 1.0000000000 0 0 255
-0.4317214151 0.2221672607 -0.6015433614 1.0000000000 0 0 255
-0.4289584722 0.2286953629 -0.6016287943 1.0000000000 0 0 255
-0.4393115757 0.1092923457 -0.5931278941 0.0000000000 255 0 0
-0.4365161242 0.1271340932 -0.5941825718 0.0000000000 255 0 0
-0.4337206727 0.1449758407 -0.5952372494 0.0000000000 255 0 0
-0.4309252212 0.1628175882 -0.5962919270 0.0000000000 255 0 0
-0.4281297697 0.1806593356 -0.5973466047 0.0000000000 255 0 0
-0.4545199037 0.1115086733 -0.5959448559 1.0000000000 0 0 255
-0.4517244523 0.1293504208 -0.5969995335 1.0000000000 0 0 255
-0.4489290008 0.1471921682 -0.5980542112 1.0000000000 0 0 255
-0.4461335493 0.1650339157 -0.5991088888 1.0000000000 0 0 255
-0.4433380978 0.1828756632 -0.6001635665 1.0000000000 0 0 255
-0.4404111595 0.0651199783 -0.5895115757 0.0000000000 255 0 0
-0.4401727431 0.0741572988 -0.5902491237 0.0000000000 255 0 0
-0.4399343267 0.0831946192 -0.5909866717 0.0000000000 255 0 0
-0.4396959104 0.0922319397 -0.5917242198 0.0000000000 255 0 0
-0.4394574940 0.1012692602 -0.5924617678 0.0000000000 255 0 0
-0.4558044835 0.0653078359 -0.5921856940 1.0000000000 0 0 255
-0.4555660672 0.0743451564 -0.5929232421 1.0000000000 0 0 255
-0.4553276508 0.0833824769 -0.5936607901 1.0000000000 0 0 255
-0.4550892344 0.0924197974 -0.5943983381 1.0000000000 0 0 255
-0.4548508181 0.1014571178 -0.5951358861 1.0000000000 0 0 255
-0.4210363870 -0.0217844036 -0.5786779245 0.0000000000 255 0 0
-0.4249473641 -0.0040252868 -0.5808834663 0.0000000000 255 0 0
-0.4288583411 0.0137338300 -0.5830890082 0.0000000000 255 0 0
-0.4327693181 0.0314929469 -0.5852945500 0.0000000000 255 0 0
-0.4366802952 0.0492520637 -0.5875000919 0.0000000000 255 0 0
-0.4360694856 -0.0253789504 -0.5809639267 1.0000000000 0 0 255
-0.4399804626 -0.0076198336 -0.5831694685 1.0000000000 0 0 255
-0.4438914397 0.0101392832 -0.5853750104 1.0000000000 0 0 255
-0.4478024167 0.0278984001 -0.5875805522 1.0000000000 0 0 255
-0.4517133937 0.0456575169 -0.5897860941 1.0000000000 0 0 255
-0.3918779446 -0.0920387388 -0.5675896259 0.0000000000 255 0 0
-0.3977907768 -0.0777293746 -0.5698435703 0.0000000000 255 0 0
-0.4037036090 -0.0634200104 -0.5720975148 0.0000000000 255 0 0
-0.4096164412 -0.0491106462 -0.5743514592 0.0000000000 255 0 0
-0.4155292734 -0.0348012819 -0.5766054036 0.0000000000 255 0 0
-0.4060996059 -0.0982182574 -0.5695127809 1.0000000000 0 0 255
-0.4120124381 -0.0839088932 -0.5717667253 1.0000000000 0 0 255
-0.4179252703 -0.0695995289 -0.5740206698 1.0000000000 0 0 255
-0.4238381025 -0.0552901647 -0.5762746142 1.0000000000 0 0 255
-0.4297509347 -0.0409808005 -0.5785285586 1.0000000000 0 0 255
-0.3545091725 -0.1419638993 -0.5568353629 0.0000000000 255 0 0
-0.3621688507 -0.1316503989 -0.5590466216 0.0000000000 255 0 0
-0.3698285289 -0.1213368985 -0.5612578802 0.0000000000 255 0 0
-0.3774882071 -0.1110233982 -0.5634691388 0.0000000000 255 0 0
-0.3851478854 -0.1007098978 -0.5656803974 0.0000000000 255 0 0
-0.3668715957 -0.1514281005 -0.5581544576 1.0000000000 0 0 255
-0.3745312739 -0.1411146002 -0.5603657162 1.0000000000 0 0 255
-0.3821909522 -0.1308010998 -0.5625769748 1.0000000000 0 0 255
-0.3898506304 -0.1204875995 -0.5647882334 1.0000000000 0 0 255
-0.3975103086 -0.1101740991 -0.5669994921 1.0000000000 0 0 255
-0.3283667271 -0.1632589153 -0.5504864862 0.0000000000 255 0 0
-0.3338471360 -0.1587346317 -0.5518226183 0.0000000000 255 0 0
-0.3393275449 -0.1542103480 -0.5531587504 0.0000000000 255 0 0
-0.3448079537 -0.1496860644 -0.5544948825 0.0000000000 255 0 0
-0.3502883626 -0.1451617807 -0.5558310145 0.0000000000 255 0 0
-0.3382099524 -0.1753759209 -0.5511420135 1.0000000000 0 0 255
-0.3436903613 -0.1708516373 -0.5524781455 1.0000000000 0 0 255
-0.3491707702 -0.1663273536 -0.5538142776 1.0000000000 0 0 255
-0.3546511790 -0.1618030700 -0.5551504097 1.0000000000 0 0 255
-0.3601315879 -0.1572787863 -0.5564865418 1.0000000000 0 0 255
-0.2297766573 -0.2503085473 -0.5259623887 0.0000000000 255 0 0
-0.2494564915 -0.2329312213 -0.5308578067 0.0000000000 255 0 0
-0.2691363257 -0.2155538953 -0.5357532248 0.0000000000 255 0 0
-0.2888161599 -0.1981765693 -0.5406486428 0.0000000000 255 0 0
-0.3084959941 -0.1807992433 -0.5455440608 0.0000000000 255 0 0
-0.2400016803 -0.2620995489 -0.5267119308 1.0000000000 0 0 255
-0.2596815145 -0.2447222229 -0.5316073488 1.0000000000 0 0 255
-0.2793613487 -0.2273448969 -0.5365027668 1.0000000000 0 0 255
-0.2990411829 -0.2099675709 -0.5413981848 1.0000000000 0 0 255
-0.3187210171 -0.1925902449 -0.5462936029 1.0000000000 0 0 255
-0.2173348783 -0.2558793955 -0.5233340733 0.0000000000 255 0 0
-0.2201754463 -0.2545329144 -0.5239405696 0.0000000000 255 0 0
-0.2230160142 -0.2531864333 -0.5245470659 0.0000000000 255 0 0
-0.2258565822 -0.2518399521 -0.5251535621 0.0000000000 255 0 0
-0.2286971501 -0.2504934710 -0.5257600584 0.0000000000 255 0 0
-0.2240377797 -0.2699935119 -0.5232752836 1.0000000000 0 0 255
-0.2268783477 -0.2686470308 -0.5238817799 1.0000000000 0 0 255
-0.2297189156 -0.2673005497 -0.5244882761 1.0000000000 0 0 255
-0.2325594836 -0.2659540685 -0.5250947724 1.0000000000 0 0 255
-0.2354000516 -0.2646075874 -0.5257012686 1.0000000000 0 0 255
-0.0991216784 -0.3211541304 -0.4972979614 0.0000000000 255 0 0
-0.1226812491 -0.3081417602 -0.5024871717 0.0000000000 255 0 0
-0.1462408199 -0.2951293901 -0.5076763820 0.0000000000 255 0 0
-0.1698003906 -0.2821170200 -0.5128655923 0.0000000000 255 0 0
-0.1933599614 -0.2691046499 -0.5180548026 0.0000000000 255 0 0
-0.1066552722 -0.3348424782 -0.4974192925 1.0000000000 0 0 255
-0.1302148429 -0.3218301081 -0.5026085028 1.0000000000 0 0 255
-0.1537744137 -0.3088177380 -0.5077977131 1.0000000000 0 0 255
-0.1773339844 -0.2958053679 -0.5129869234 1.0000000000 0 0 255
-0.2008935552 -0.2827929978 -0.5181761337 1.0000000000 0 0 255
-0.0999067260 -0.3206740359 -0.4974748819 0.0000000000 255 0 0
-0.1001425183 -0.3206201082 -0.4975202424 0.0000000000 255 0 0
-0.1003783107 -0.3205661804 -0.4975656029 0.0000000000 255 0 0
-0.1006141030 -0.3205122527 -0.4976109634 0.0000000000 255 0 0
-0.1008498954 -0.3204583250 -0.4976563239 0.0000000000 255 0 0
-0.1035123012 -0.3358618501 -0.4967887668 1.0000000000 0 0 255
-0.1037480935 -0.3358079223 -0.4968341274 1.0000000000 0 0 255
-0.1039838859 -0.3357539946 -0.4968794879 1.0000000000 0 0 255
-0.1042196782 -0.3357000669 -0.4969248484 1.0000000000 0 0 255
-0.1044554706 -0.3356461391 -0.4969702089 1.0000000000 0 0 255
0.0097096153 -0.3561819827 -0.4754880724 0.0000000000 255 0 0
-0.0120846572 -0.3491159784 -0.4798600946 0.0000000000 255 0 0
